NCOLS 312
NROWS 65
XLLCORNER 7.000000002
YLLCORNER -5.08333333333
CELLSIZE 0.0416666666666667 
NODATA_value -9999 
-9999 -9999 -9999 -9999 -9999 -9999 -9999 -9999 -9999 -9999 -9999 -9999 -9999 -9999 -9999 -9999 -9999 -9999 -9999 -9999 -9999 -9999 -9999 -9999 -9999 -9999 -9999 -9999 -9999 -9999 -9999 -9999 -9999 -9999 -9999 -9999 -9999 -9999 -9999 -9999 -9999 -9999 -9999 -9999 -9999 -9999 -9999 -9999 -9999 -9999 -9999 -9999 -9999 -9999 -9999 -9999 -9999 -9999 -9999 -9999 -9999 -9999 -9999 -9999 37 33 47 40 33 45 63 71 51 44 36 28 109 131 229 286 307 352 436 208 267 96 100 132 199 259 236 243 251 183 256 281 309 329 363 304 175 146 144 138 131 136 147 198 176 188 156 182 246 269 299 327 359 341 385 414 454 492 499 502 514 555 586 602 643 654 650 645 617 653 682 691 660 659 657 618 591 613 658 749 724 675 662 651 631 610 586 582 580 581 583 560 539 550 560 547 543 537 550 564 610 619 582 615 688 711 618 714 698 669 677 552 666 806 840 832 822 807 753 543 693 783 776 765 757 752 716 653 561 686 718 710 703 687 679 677 674 661 648 640 632 636 634 611 595 549 506 410 457 445 386 404 360 336 324 281 280 295 426 435 449 392 362 405 407 427 411 400 401 394 382 383 376 369 366 361 362 349 340 332 338 331 334 334 330 324 317 311 314 308 307 299 301 299 297 299 301 301 309 325 326 322 326 333 319 302 296 -9999 -9999 317 321 330 329 322 327 327 318 315 316 319 320 319 321 315 310 311 312 315 319 320 321 322 322 319 316 316 316 317 321 322 323 332 341 344 339 343 348 356
-9999 -9999 -9999 -9999 -9999 -9999 -9999 -9999 -9999 -9999 -9999 -9999 -9999 -9999 -9999 -9999 -9999 -9999 -9999 -9999 -9999 -9999 -9999 -9999 -9999 -9999 -9999 -9999 -9999 -9999 -9999 -9999 -9999 -9999 -9999 -9999 -9999 -9999 -9999 -9999 -9999 -9999 -9999 -9999 -9999 -9999 -9999 -9999 -9999 -9999 -9999 -9999 -9999 -9999 -9999 -9999 -9999 -9999 -9999 -9999 -9999 -9999 -9999 -9999 -9999 20 37 45 32 35 57 53 53 46 36 50 211 157 208 324 392 325 429 388 339 106 103 102 201 253 229 218 205 208 254 289 308 313 346 351 191 152 166 154 144 138 141 170 204 220 246 159 189 240 251 280 324 338 369 408 396 439 468 496 483 523 543 573 618 639 651 629 619 648 682 693 655 645 665 647 603 624 729 704 702 658 652 637 625 626 611 610 581 588 581 552 557 561 563 549 542 548 535 536 547 613 616 594 612 654 659 714 713 622 552 610 649 803 846 833 828 750 711 558 772 785 775 767 763 753 724 592 693 729 730 714 705 700 694 688 676 665 656 634 619 632 622 591 553 556 500 516 556 433 437 438 403 373 339 297 282 282 315 357 440 432 397 437 424 407 389 362 379 385 380 357 372 364 368 358 357 354 343 335 334 331 335 330 325 317 320 314 306 305 302 301 294 295 297 296 299 309 312 326 330 333 334 341 333 305 296 -9999 318 319 328 338 331 322 325 322 325 319 320 319 321 323 322 321 311 312 315 313 317 318 322 316 325 324 323 321 322 321 321 324 329 330 340 348 337 340 355 363
-9999 -9999 -9999 -9999 -9999 -9999 -9999 -9999 -9999 -9999 -9999 -9999 -9999 -9999 -9999 -9999 -9999 -9999 -9999 -9999 -9999 -9999 -9999 -9999 -9999 -9999 -9999 -9999 -9999 -9999 -9999 -9999 -9999 -9999 -9999 -9999 -9999 -9999 -9999 -9999 -9999 -9999 -9999 -9999 -9999 -9999 -9999 -9999 -9999 -9999 -9999 -9999 -9999 -9999 -9999 -9999 -9999 -9999 -9999 -9999 -9999 -9999 -9999 -9999 -9999 -9999 27 21 14 22 39 36 46 37 34 33 130 197 236 298 431 361 368 388 310 107 90 82 127 250 233 190 169 221 252 277 292 314 345 356 294 166 166 167 160 163 161 151 167 196 239 191 160 191 236 281 312 324 334 346 340 395 447 487 476 473 532 549 592 635 642 628 645 665 671 665 652 644 647 621 576 595 649 662 632 627 649 648 649 650 633 617 604 605 588 572 566 568 564 554 549 546 552 570 599 621 719 697 691 650 701 659 631 602 678 629 712 778 766 731 745 647 512 605 734 788 777 771 764 740 668 621 737 739 727 719 712 698 691 662 618 589 570 541 536 579 584 594 598 613 597 626 607 540 533 541 494 421 395 331 281 283 336 399 462 478 444 444 428 423 391 392 361 359 348 355 349 350 361 350 356 353 341 334 322 329 324 333 330 315 319 316 308 303 300 300 294 296 294 311 313 305 315 333 336 342 345 338 339 317 295 308 316 318 336 337 329 322 328 317 322 320 321 320 321 321 322 320 313 315 316 313 313 314 322 320 320 323 322 326 325 323 329 326 326 330 338 339 335 345 351 358
-9999 -9999 -9999 -9999 -9999 -9999 -9999 -9999 -9999 -9999 -9999 -9999 -9999 -9999 -9999 -9999 -9999 -9999 -9999 -9999 -9999 -9999 -9999 -9999 -9999 -9999 -9999 -9999 -9999 -9999 -9999 -9999 -9999 -9999 -9999 -9999 -9999 -9999 -9999 -9999 -9999 -9999 -9999 -9999 -9999 -9999 -9999 -9999 -9999 -9999 -9999 -9999 -9999 -9999 -9999 -9999 -9999 -9999 -9999 -9999 -9999 -9999 -9999 -9999 -9999 -9999 -9999 14 15 8 20 20 41 42 22 23 84 141 225 250 301 253 327 312 278 171 102 80 94 166 215 188 184 233 253 279 292 310 316 331 343 239 165 162 156 180 194 156 151 165 215 235 216 199 220 297 294 317 314 330 328 368 438 457 466 467 464 527 577 593 595 640 634 666 638 601 615 630 595 602 575 580 612 615 612 593 654 669 656 652 631 640 603 622 582 588 575 565 562 567 556 542 569 596 670 620 703 627 658 695 725 699 605 636 663 630 711 745 702 643 708 521 639 704 792 794 784 775 753 678 522 679 746 738 731 679 680 694 649 629 627 604 492 496 499 482 562 619 634 638 629 625 611 605 553 498 458 500 442 331 276 284 367 436 469 497 480 454 430 425 410 389 375 373 384 380 365 360 355 344 347 345 339 332 325 316 327 332 333 323 321 317 308 304 297 297 301 294 293 310 324 314 320 335 332 327 339 337 340 325 298 301 319 324 335 334 332 319 329 318 316 317 318 319 319 320 320 321 320 323 321 318 318 320 321 322 320 320 325 325 326 327 330 330 331 334 335 334 343 348 362 359
-9999 -9999 -9999 -9999 -9999 -9999 -9999 -9999 -9999 -9999 -9999 -9999 -9999 -9999 -9999 -9999 -9999 -9999 -9999 -9999 -9999 -9999 -9999 -9999 -9999 -9999 -9999 -9999 -9999 -9999 -9999 -9999 -9999 -9999 -9999 -9999 -9999 -9999 -9999 -9999 -9999 -9999 -9999 -9999 -9999 -9999 -9999 -9999 -9999 -9999 -9999 -9999 -9999 -9999 -9999 -9999 -9999 -9999 -9999 -9999 -9999 -9999 -9999 -9999 -9999 -9999 -9999 -9999 21 8 11 21 35 29 37 8 39 159 296 206 200 193 276 342 309 189 141 105 80 84 175 170 220 226 251 271 293 308 304 314 329 330 188 167 156 169 180 162 150 146 164 220 236 200 236 267 287 303 303 315 317 376 418 430 454 458 468 511 546 534 588 611 591 634 645 596 586 599 580 584 578 586 593 589 584 550 618 668 670 676 658 636 618 615 608 582 570 557 568 577 564 543 550 571 585 673 598 644 678 710 676 676 673 703 688 631 729 742 685 602 573 534 680 747 685 602 642 623 634 482 647 702 713 732 659 605 716 611 592 452 441 463 584 634 622 590 616 650 635 633 630 623 609 601 530 487 411 429 441 403 287 268 356 477 488 488 479 463 429 415 404 387 399 389 383 380 372 364 351 341 334 345 344 336 332 314 324 326 332 325 323 313 314 309 302 297 294 291 303 321 341 335 322 333 331 341 334 329 341 320 295 298 318 336 341 323 326 321 319 314 320 326 324 322 324 323 325 322 321 325 326 326 324 324 323 324 323 321 322 325 328 328 329 330 331 331 331 330 336 338 340 344
-9999 -9999 -9999 -9999 -9999 -9999 -9999 -9999 -9999 -9999 -9999 -9999 -9999 -9999 -9999 -9999 -9999 -9999 -9999 -9999 -9999 -9999 -9999 -9999 -9999 -9999 -9999 -9999 -9999 -9999 -9999 -9999 -9999 -9999 -9999 -9999 -9999 -9999 -9999 -9999 -9999 -9999 -9999 -9999 -9999 -9999 -9999 -9999 -9999 -9999 -9999 -9999 -9999 -9999 -9999 -9999 -9999 -9999 -9999 -9999 -9999 -9999 -9999 -9999 -9999 -9999 -9999 -9999 -9999 27 17 11 23 12 38 17 11 31 89 124 137 156 194 276 289 236 230 138 84 82 80 169 199 223 250 257 279 287 310 315 336 381 289 166 163 171 184 174 151 149 153 178 240 227 229 253 252 271 303 297 310 343 384 369 404 456 481 480 439 479 553 562 567 635 620 634 582 584 575 585 576 560 574 579 586 538 630 689 713 729 632 609 594 627 618 591 583 568 579 578 561 561 549 555 579 573 633 635 649 683 634 630 685 717 647 678 739 680 623 636 555 663 681 708 619 586 526 580 576 545 638 560 646 628 539 709 634 518 433 563 502 627 668 655 639 641 656 650 587 555 616 603 551 547 488 445 409 355 377 428 358 280 379 465 486 485 474 465 427 419 405 402 402 406 390 382 376 361 357 349 332 334 348 340 341 332 320 331 330 318 312 308 315 314 305 299 298 293 301 317 331 346 315 328 339 330 329 327 338 310 296 313 325 339 336 321 321 314 313 316 320 323 331 327 333 325 329 327 323 326 329 328 331 329 324 334 332 328 327 329 332 341 337 336 335 337 349 347 347 343 339 339
-9999 -9999 -9999 -9999 -9999 -9999 -9999 -9999 -9999 -9999 -9999 -9999 -9999 -9999 -9999 -9999 -9999 -9999 -9999 -9999 -9999 -9999 -9999 -9999 -9999 -9999 -9999 -9999 -9999 -9999 -9999 -9999 -9999 -9999 -9999 -9999 -9999 -9999 -9999 -9999 -9999 -9999 -9999 -9999 -9999 -9999 -9999 -9999 -9999 -9999 -9999 -9999 -9999 -9999 -9999 -9999 -9999 -9999 -9999 -9999 -9999 -9999 -9999 -9999 -9999 -9999 -9999 -9999 -9999 -9999 31 21 15 13 15 40 42 34 35 53 93 153 204 333 302 265 230 147 102 79 74 111 175 221 257 272 280 289 304 336 328 364 393 236 168 179 183 184 172 156 154 166 211 236 256 232 232 276 290 290 290 313 308 326 416 452 433 421 439 500 568 569 558 583 604 594 574 583 572 575 567 558 568 629 601 558 645 691 712 704 609 591 583 602 624 602 595 569 589 580 569 569 552 558 555 585 609 645 638 687 620 706 669 625 670 749 687 723 727 613 623 721 711 653 611 579 497 478 418 597 561 616 605 480 504 623 496 408 543 664 646 676 668 661 651 647 644 611 533 477 520 548 493 503 478 406 359 344 330 329 353 287 401 453 475 491 474 479 437 413 383 396 399 394 391 375 368 374 363 354 348 321 343 339 337 330 323 328 314 315 312 306 313 320 317 313 315 298 294 303 333 319 311 319 339 324 311 313 323 298 292 324 342 341 331 314 307 318 323 327 330 328 323 331 337 330 332 333 326 328 333 338 339 330 327 332 332 329 332 337 340 341 351 339 341 344 364 361 356 360 358 355
-9999 -9999 -9999 -9999 -9999 -9999 -9999 -9999 -9999 -9999 -9999 -9999 -9999 -9999 -9999 -9999 -9999 -9999 -9999 -9999 -9999 -9999 -9999 -9999 -9999 -9999 -9999 -9999 -9999 -9999 -9999 -9999 -9999 -9999 -9999 -9999 -9999 -9999 -9999 -9999 -9999 -9999 -9999 -9999 -9999 -9999 -9999 -9999 -9999 -9999 -9999 -9999 -9999 -9999 -9999 -9999 -9999 -9999 -9999 -9999 -9999 -9999 -9999 -9999 -9999 -9999 -9999 -9999 -9999 -9999 -9999 33 22 7 24 69 66 58 53 37 65 118 228 273 329 301 197 159 115 71 68 59 126 195 234 274 296 293 300 334 350 375 391 382 279 186 184 192 207 169 163 167 188 271 289 252 265 268 296 284 243 273 302 347 367 402 404 474 493 475 529 547 576 580 575 585 562 562 563 569 561 572 578 601 591 533 619 686 698 676 622 588 569 600 629 615 602 586 598 578 576 571 554 548 565 596 585 669 617 631 619 715 747 720 743 758 714 684 687 593 701 740 673 666 599 555 675 658 468 591 526 558 627 669 526 533 399 579 597 709 697 685 684 669 658 649 534 554 547 451 438 492 455 453 415 375 401 439 385 424 333 288 357 441 479 486 477 471 436 417 405 369 390 386 386 387 381 372 360 350 342 339 332 339 332 331 321 324 315 309 307 315 305 312 317 299 315 299 296 321 326 310 316 316 327 334 308 307 307 290 309 330 328 337 328 310 314 329 331 322 330 336 339 336 337 339 339 341 332 339 332 339 336 331 328 330 332 335 334 344 344 348 357 340 353 349 354 366 364 366 369 361
-9999 -9999 -9999 -9999 -9999 -9999 -9999 -9999 -9999 -9999 -9999 -9999 -9999 -9999 -9999 -9999 -9999 -9999 -9999 -9999 -9999 -9999 -9999 -9999 -9999 -9999 -9999 -9999 -9999 -9999 -9999 -9999 -9999 -9999 -9999 -9999 -9999 -9999 -9999 -9999 -9999 -9999 -9999 -9999 -9999 -9999 -9999 -9999 -9999 -9999 -9999 -9999 -9999 -9999 -9999 -9999 -9999 -9999 -9999 -9999 -9999 -9999 -9999 -9999 -9999 -9999 -9999 -9999 -9999 -9999 -9999 -9999 18 27 55 81 77 29 21 26 34 64 151 213 278 259 218 136 139 79 52 54 59 142 203 261 296 304 302 323 340 344 371 411 513 348 199 199 191 179 170 171 177 234 284 297 285 290 311 282 231 254 264 309 354 396 435 451 482 518 529 547 569 594 538 509 586 574 558 565 556 573 590 600 608 572 653 651 683 667 636 579 562 591 627 626 607 596 592 588 582 569 561 553 559 566 591 581 560 631 659 648 642 722 713 685 663 648 623 606 698 722 590 611 595 688 651 558 447 433 520 642 611 533 561 375 493 625 718 711 701 693 679 668 656 630 578 478 418 364 482 512 497 454 471 434 469 486 461 448 290 332 413 425 469 479 469 473 443 411 404 397 351 393 414 395 383 372 366 353 341 336 315 331 327 322 312 328 321 308 300 303 300 297 299 292 296 291 298 310 302 312 302 309 306 325 309 297 294 299 329 338 324 314 316 299 315 327 329 329 330 336 341 347 340 348 344 347 343 344 340 334 336 340 333 339 342 340 337 351 353 363 358 348 361 363 348 371 384 373 381 369
-9999 -9999 -9999 -9999 -9999 -9999 -9999 -9999 -9999 -9999 -9999 -9999 -9999 -9999 -9999 -9999 -9999 -9999 -9999 -9999 -9999 -9999 -9999 -9999 -9999 -9999 -9999 -9999 -9999 -9999 -9999 -9999 -9999 -9999 -9999 -9999 -9999 -9999 -9999 -9999 -9999 -9999 -9999 -9999 -9999 -9999 -9999 -9999 -9999 -9999 -9999 -9999 -9999 -9999 -9999 -9999 -9999 -9999 -9999 -9999 -9999 -9999 -9999 -9999 -9999 -9999 -9999 -9999 -9999 -9999 -9999 -9999 -9999 25 107 81 73 44 16 17 14 28 89 140 165 164 192 167 126 61 60 69 83 84 202 254 280 306 318 309 346 360 375 399 496 553 320 367 187 175 183 182 178 188 237 278 270 300 290 267 221 233 244 284 326 362 386 412 445 489 532 544 560 565 482 484 561 579 558 559 555 571 583 608 680 590 586 546 562 613 575 581 558 597 631 633 622 598 606 587 580 572 567 559 550 555 550 551 564 595 626 654 689 688 745 667 682 693 652 670 708 657 625 652 645 698 601 481 623 466 439 620 474 426 454 473 644 643 676 700 707 685 649 624 638 569 491 516 501 412 410 459 416 516 555 566 561 552 515 453 292 346 347 369 446 475 468 473 443 417 361 398 345 379 417 395 382 372 360 353 350 345 335 319 306 300 310 327 316 320 304 292 296 291 296 300 292 291 293 295 296 294 298 294 298 299 297 306 299 306 307 302 302 297 297 305 329 336 338 342 344 339 350 346 356 347 350 346 351 340 343 340 346 345 343 345 351 344 344 351 361 369 368 358 373 366 352 359 369 379 384 374
-9999 -9999 -9999 -9999 -9999 -9999 -9999 -9999 -9999 -9999 -9999 -9999 -9999 -9999 -9999 -9999 -9999 -9999 -9999 -9999 -9999 -9999 -9999 -9999 -9999 -9999 -9999 -9999 -9999 -9999 -9999 -9999 -9999 -9999 -9999 -9999 -9999 -9999 -9999 -9999 -9999 -9999 -9999 -9999 -9999 -9999 -9999 -9999 -9999 -9999 -9999 -9999 -9999 -9999 -9999 -9999 -9999 -9999 -9999 -9999 -9999 -9999 -9999 -9999 -9999 -9999 -9999 -9999 -9999 -9999 -9999 -9999 -9999 -9999 -9999 69 82 83 26 21 4 14 32 88 143 133 110 198 126 73 65 78 112 97 149 267 293 306 334 341 347 382 383 411 436 534 505 469 196 195 263 196 185 177 190 246 257 282 283 228 208 218 236 267 282 327 369 391 441 449 500 519 516 550 481 465 535 576 574 558 553 563 570 597 624 526 530 546 572 630 558 569 558 597 635 628 638 607 606 597 593 583 574 560 549 569 571 577 578 607 615 651 677 651 720 684 677 633 648 680 768 742 679 654 578 673 520 588 596 515 409 537 644 581 373 473 505 590 568 678 615 584 488 549 624 627 606 478 467 478 335 348 370 483 479 535 562 560 539 453 299 327 402 457 436 459 474 470 450 423 379 355 337 376 401 389 378 368 357 354 349 355 347 331 329 313 293 314 314 306 305 290 291 294 300 305 310 311 299 309 315 304 308 300 293 293 295 304 306 300 295 301 298 305 315 320 339 347 344 343 335 344 356 361 354 337 355 336 339 347 347 347 343 346 344 350 359 353 351 352 359 373 371 367 375 376 364 363 381 380 390 387
-9999 -9999 -9999 -9999 -9999 -9999 -9999 -9999 -9999 -9999 -9999 -9999 -9999 -9999 -9999 -9999 -9999 -9999 -9999 -9999 -9999 -9999 -9999 -9999 -9999 -9999 -9999 -9999 -9999 -9999 -9999 -9999 -9999 -9999 -9999 -9999 -9999 -9999 -9999 -9999 -9999 -9999 -9999 -9999 -9999 -9999 -9999 -9999 -9999 -9999 -9999 -9999 -9999 -9999 -9999 -9999 -9999 -9999 -9999 -9999 -9999 -9999 -9999 -9999 -9999 -9999 -9999 -9999 -9999 -9999 -9999 -9999 -9999 -9999 -9999 -9999 54 49 44 23 9 7 23 97 105 137 123 165 262 121 76 84 97 100 90 198 262 294 310 328 301 325 338 367 410 432 473 329 189 209 317 201 198 181 177 196 216 264 248 216 219 265 243 249 283 286 328 378 403 435 472 495 405 413 436 470 457 503 559 543 552 553 553 540 536 513 553 531 531 527 505 541 535 560 589 581 618 619 609 595 602 594 567 559 554 555 570 595 597 638 632 650 668 693 638 639 589 646 739 704 654 738 654 616 529 505 528 642 533 510 403 606 479 453 370 541 591 592 539 553 502 573 635 677 647 636 500 390 354 328 331 363 381 323 374 535 482 524 529 386 289 334 409 510 490 486 483 458 449 427 396 321 315 370 383 368 365 371 358 342 351 352 346 354 344 321 301 306 309 294 291 292 307 316 318 314 324 321 314 325 335 321 313 302 306 304 314 330 310 305 307 311 298 305 308 311 329 324 321 328 340 349 348 353 337 344 345 344 348 352 353 351 344 342 348 355 356 359 355 362 364 373 376 373 378 380 375 367 381 390 397 398
-9999 -9999 -9999 -9999 -9999 -9999 -9999 -9999 -9999 -9999 -9999 -9999 -9999 -9999 -9999 -9999 -9999 -9999 -9999 -9999 -9999 -9999 -9999 -9999 -9999 -9999 -9999 -9999 -9999 -9999 -9999 -9999 -9999 -9999 -9999 -9999 -9999 -9999 -9999 -9999 -9999 -9999 -9999 -9999 -9999 -9999 -9999 -9999 -9999 -9999 -9999 -9999 -9999 -9999 -9999 -9999 -9999 -9999 -9999 -9999 -9999 -9999 -9999 -9999 -9999 -9999 -9999 -9999 -9999 -9999 -9999 -9999 -9999 -9999 -9999 -9999 -9999 23 19 11 13 9 22 44 117 167 185 184 286 114 61 89 111 81 91 87 215 260 298 302 267 297 342 363 389 471 444 295 234 260 260 204 208 182 170 173 179 205 231 247 267 291 284 280 268 251 246 291 322 379 460 405 466 479 483 476 453 457 510 535 535 547 550 509 473 466 521 491 448 467 478 500 492 526 529 517 570 589 615 617 610 603 577 569 576 578 581 595 621 598 613 633 644 639 598 584 619 645 652 625 586 623 674 708 549 493 627 632 542 506 400 377 365 361 348 451 550 453 486 577 688 703 691 656 507 498 386 316 357 443 431 496 461 404 334 469 418 500 453 376 318 443 479 509 504 499 476 458 433 419 391 328 316 339 370 342 357 352 353 355 342 337 339 340 346 336 323 289 289 292 295 298 303 323 321 319 330 326 326 334 337 330 329 312 319 311 329 330 320 318 328 316 317 321 312 306 314 321 338 341 342 348 366 359 344 340 351 355 358 368 364 353 347 346 357 359 365 366 365 369 373 369 382 384 384 390 386 372 385 399 396 402
-9999 -9999 -9999 -9999 -9999 -9999 -9999 -9999 -9999 -9999 -9999 -9999 -9999 -9999 -9999 -9999 -9999 -9999 -9999 -9999 -9999 -9999 -9999 -9999 -9999 -9999 -9999 -9999 -9999 -9999 -9999 -9999 -9999 -9999 -9999 -9999 -9999 -9999 -9999 -9999 -9999 -9999 -9999 -9999 -9999 -9999 -9999 -9999 -9999 -9999 -9999 -9999 -9999 -9999 -9999 -9999 -9999 -9999 -9999 -9999 -9999 -9999 -9999 -9999 -9999 -9999 -9999 -9999 -9999 -9999 -9999 -9999 -9999 -9999 -9999 -9999 -9999 -9999 -9999 13 12 10 13 24 35 100 144 181 244 244 104 76 77 120 76 60 98 235 270 277 240 257 301 378 410 425 423 278 277 423 444 206 205 188 170 171 171 171 210 254 296 299 278 242 218 183 218 241 263 332 444 387 474 456 491 455 428 463 487 499 516 526 539 496 477 458 454 454 451 443 469 484 470 494 499 530 569 611 619 628 626 607 595 580 584 584 581 594 600 588 587 622 621 584 578 580 671 673 703 663 722 724 627 504 526 630 619 588 510 431 465 499 441 384 377 350 422 496 553 658 715 705 695 591 433 344 327 388 451 517 483 590 514 558 489 325 331 380 354 319 293 460 515 521 491 478 457 439 415 414 352 332 313 333 348 336 337 328 337 324 327 315 326 314 327 331 300 289 299 316 332 307 317 330 337 338 331 337 333 344 341 334 333 321 325 321 338 330 337 325 332 336 330 331 332 309 303 327 330 350 353 349 351 352 344 352 353 358 364 369 370 368 356 357 372 370 372 370 379 380 380 383 391 395 391 397 390 393 393 395 397 396
-9999 -9999 -9999 -9999 -9999 -9999 -9999 -9999 -9999 -9999 -9999 -9999 -9999 -9999 -9999 -9999 -9999 -9999 -9999 -9999 -9999 -9999 -9999 -9999 -9999 -9999 -9999 -9999 -9999 -9999 -9999 -9999 -9999 -9999 -9999 -9999 -9999 -9999 -9999 -9999 -9999 -9999 -9999 -9999 -9999 -9999 -9999 -9999 -9999 -9999 -9999 -9999 -9999 -9999 -9999 -9999 -9999 -9999 -9999 -9999 -9999 -9999 -9999 -9999 -9999 -9999 -9999 -9999 -9999 -9999 -9999 -9999 -9999 -9999 -9999 -9999 -9999 -9999 -9999 -9999 11 10 9 16 20 39 88 161 215 321 260 112 133 208 146 94 77 127 217 281 255 253 317 380 390 315 345 274 279 236 370 223 193 179 175 160 162 161 174 210 264 270 304 235 212 185 178 201 235 280 374 376 433 477 493 402 422 456 478 469 475 491 508 475 486 469 461 443 451 459 457 455 459 460 484 532 548 534 568 592 598 608 596 580 589 593 590 599 574 571 563 572 563 561 558 593 602 660 646 660 701 587 507 513 553 555 611 617 498 544 480 430 410 426 395 357 385 561 523 651 699 535 628 517 325 343 443 424 501 648 622 632 624 612 566 459 445 481 402 355 289 446 508 507 480 450 441 413 357 405 360 327 326 329 326 332 334 321 331 308 304 299 292 291 298 298 290 298 322 326 319 317 328 324 343 348 334 342 341 351 362 344 337 328 339 340 341 339 344 333 345 348 340 343 333 315 303 307 325 340 351 336 340 338 340 346 348 350 361 360 365 374 361 362 373 367 363 371 372 372 382 389 393 389 387 399 403 402 402 390 393 386
-9999 -9999 -9999 -9999 -9999 -9999 -9999 -9999 -9999 -9999 -9999 -9999 -9999 -9999 -9999 -9999 -9999 -9999 -9999 -9999 -9999 -9999 -9999 -9999 -9999 -9999 -9999 -9999 -9999 -9999 -9999 -9999 -9999 -9999 -9999 -9999 -9999 -9999 -9999 -9999 -9999 -9999 -9999 -9999 -9999 -9999 -9999 -9999 -9999 -9999 -9999 -9999 -9999 -9999 -9999 -9999 -9999 -9999 -9999 -9999 -9999 -9999 -9999 -9999 -9999 -9999 -9999 -9999 -9999 -9999 -9999 -9999 -9999 -9999 -9999 -9999 -9999 -9999 -9999 -9999 -9999 9 10 18 21 43 113 193 228 221 258 152 79 163 127 136 134 81 142 274 313 334 340 391 345 294 284 265 328 182 191 267 188 178 176 158 155 161 163 174 213 245 252 258 210 221 176 186 210 230 272 356 382 415 483 407 386 409 439 468 468 464 474 466 467 464 457 452 449 451 451 459 485 473 478 499 493 501 573 593 617 612 612 596 599 602 600 594 585 572 555 552 540 555 580 644 620 598 604 677 601 507 527 570 552 610 628 542 474 619 514 574 438 400 418 420 360 388 418 418 384 366 373 320 324 401 467 486 637 648 635 635 619 604 587 521 502 439 430 377 295 426 490 487 464 412 411 381 356 381 313 291 295 295 299 329 317 294 294 286 288 290 293 296 294 300 314 318 330 334 325 328 334 338 342 343 340 353 354 355 370 360 341 336 348 355 347 354 344 342 365 350 341 331 318 326 319 308 309 325 342 331 349 356 355 365 371 365 362 371 376 379 368 360 360 377 363 369 365 382 378 390 387 386 373 390 404 408 402 398 380 379
-9999 -9999 -9999 -9999 -9999 -9999 -9999 -9999 -9999 -9999 -9999 -9999 -9999 -9999 -9999 -9999 -9999 -9999 -9999 -9999 -9999 -9999 -9999 -9999 -9999 -9999 -9999 -9999 -9999 -9999 -9999 -9999 -9999 -9999 -9999 -9999 -9999 -9999 -9999 -9999 -9999 -9999 -9999 -9999 -9999 -9999 -9999 -9999 -9999 -9999 -9999 -9999 -9999 -9999 -9999 -9999 -9999 -9999 -9999 -9999 -9999 -9999 -9999 -9999 -9999 -9999 -9999 -9999 -9999 -9999 -9999 -9999 -9999 -9999 -9999 -9999 -9999 -9999 -9999 -9999 -9999 -9999 9 16 18 22 115 151 185 164 240 191 117 158 119 171 246 116 95 130 251 303 322 342 316 290 228 274 379 233 169 170 197 193 166 171 166 161 163 166 174 193 214 267 267 197 185 174 168 203 221 342 377 370 430 414 357 393 456 497 466 461 461 468 462 460 446 456 443 446 445 457 464 474 502 493 478 489 535 577 586 628 615 611 617 620 609 610 604 583 552 535 543 568 605 638 625 630 557 603 535 584 580 632 675 637 593 488 538 518 561 640 503 458 491 416 445 387 348 346 348 351 349 359 340 485 448 656 661 642 639 619 611 599 594 576 478 521 490 373 331 443 449 442 398 315 354 310 297 286 280 307 306 297 284 284 285 292 288 284 287 292 310 328 327 319 339 339 353 346 340 332 341 350 344 353 355 376 372 372 375 374 354 353 349 358 351 362 347 349 355 343 337 330 341 343 321 329 311 312 324 336 358 364 370 367 365 369 378 381 382 385 376 368 370 378 367 360 372 372 380 383 379 382 371 388 411 418 394 387 380 384
-9999 -9999 -9999 -9999 -9999 -9999 -9999 -9999 -9999 -9999 -9999 -9999 -9999 -9999 -9999 -9999 -9999 -9999 -9999 -9999 -9999 -9999 -9999 -9999 -9999 -9999 -9999 -9999 -9999 -9999 -9999 -9999 -9999 -9999 -9999 -9999 -9999 -9999 -9999 -9999 -9999 -9999 -9999 -9999 -9999 -9999 -9999 -9999 -9999 -9999 -9999 -9999 -9999 -9999 -9999 -9999 -9999 -9999 -9999 -9999 -9999 -9999 -9999 -9999 -9999 -9999 -9999 -9999 -9999 -9999 -9999 -9999 -9999 -9999 -9999 -9999 -9999 -9999 -9999 -9999 -9999 -9999 -9999 11 14 33 58 101 77 117 159 217 313 234 278 142 180 187 125 108 109 187 202 260 280 297 207 292 403 457 331 192 157 157 158 178 192 179 171 164 162 159 177 232 224 251 238 170 145 164 201 287 369 398 379 384 404 442 523 565 453 453 458 467 461 460 453 432 443 471 474 468 455 464 480 469 487 495 499 511 521 554 625 628 635 626 620 608 590 560 547 527 544 562 604 635 620 650 633 551 531 621 663 624 704 705 594 526 633 600 593 553 443 592 502 518 614 410 417 408 415 446 481 565 360 523 658 665 647 636 631 625 608 598 586 570 493 503 417 328 365 357 325 333 321 372 316 347 403 346 353 383 369 351 331 292 289 305 300 300 291 291 288 296 302 338 336 336 338 335 334 330 333 343 353 368 376 384 372 391 398 380 361 371 368 371 361 357 362 357 353 350 340 342 354 341 328 349 333 316 310 325 352 376 373 356 361 376 379 369 363 377 374 363 372 369 365 359 371 371 373 383 372 371 376 391 395 408 397 392 384 369
-9999 -9999 -9999 -9999 -9999 -9999 -9999 -9999 -9999 -9999 -9999 -9999 -9999 -9999 -9999 -9999 -9999 -9999 -9999 -9999 -9999 -9999 -9999 -9999 -9999 -9999 -9999 -9999 -9999 -9999 -9999 -9999 -9999 -9999 -9999 -9999 -9999 -9999 -9999 -9999 -9999 -9999 -9999 -9999 -9999 -9999 -9999 -9999 -9999 -9999 -9999 -9999 -9999 -9999 -9999 -9999 -9999 -9999 -9999 -9999 -9999 -9999 -9999 -9999 -9999 -9999 -9999 -9999 -9999 -9999 -9999 -9999 -9999 -9999 -9999 -9999 -9999 -9999 -9999 -9999 -9999 -9999 -9999 -9999 16 25 33 56 98 128 156 212 328 399 450 455 174 193 201 145 138 105 71 72 114 208 227 284 344 455 411 233 156 168 175 168 215 243 187 166 161 156 153 173 184 207 211 236 209 142 165 181 240 329 375 343 444 477 517 529 458 434 436 446 452 456 454 451 453 468 475 483 487 496 493 487 477 503 496 517 565 624 592 627 634 625 609 600 577 555 538 525 541 563 575 626 593 628 572 537 599 716 691 633 648 618 667 653 646 558 633 498 608 690 566 666 460 406 564 541 582 598 606 575 354 428 571 653 645 625 627 616 603 590 525 502 511 493 387 354 319 320 409 458 432 437 366 428 429 380 382 384 377 382 346 315 303 307 306 308 327 312 294 287 294 324 325 325 323 329 321 321 332 339 353 359 369 375 355 377 407 389 379 378 385 379 370 356 369 359 361 351 349 349 348 337 349 351 348 338 322 310 323 352 355 352 369 366 376 364 369 375 382 364 360 366 381 368 363 383 384 393 378 376 392 400 389 403 403 397 405 390
-9999 -9999 -9999 -9999 -9999 -9999 -9999 -9999 -9999 -9999 -9999 -9999 -9999 -9999 -9999 -9999 -9999 -9999 -9999 -9999 -9999 -9999 -9999 -9999 -9999 -9999 -9999 -9999 -9999 -9999 -9999 -9999 -9999 -9999 -9999 -9999 -9999 -9999 -9999 -9999 -9999 -9999 -9999 -9999 -9999 -9999 -9999 -9999 -9999 -9999 -9999 -9999 -9999 -9999 -9999 -9999 -9999 -9999 -9999 -9999 -9999 -9999 -9999 -9999 -9999 -9999 -9999 -9999 -9999 -9999 -9999 -9999 -9999 -9999 -9999 -9999 -9999 -9999 -9999 -9999 -9999 -9999 -9999 -9999 -9999 18 32 70 129 177 185 234 294 339 356 421 517 224 191 222 202 185 130 92 78 72 127 223 284 346 368 247 160 166 293 266 304 362 256 183 158 146 138 137 140 162 170 222 251 162 140 166 179 268 331 343 351 441 479 460 486 399 378 416 445 449 448 453 457 457 472 468 507 471 484 470 477 485 493 529 547 570 639 635 623 623 618 587 579 557 528 531 546 562 587 599 618 582 547 594 615 645 627 616 663 611 594 630 582 655 525 651 664 542 547 514 425 485 666 683 684 675 689 402 363 448 570 652 641 629 627 615 609 552 562 555 571 543 478 411 288 364 441 486 478 457 443 443 470 392 407 406 389 376 358 333 341 336 316 321 331 322 308 296 292 290 294 296 305 309 310 318 329 335 336 347 356 352 349 364 391 419 387 387 398 386 378 371 367 369 362 355 361 355 347 353 356 362 343 332 341 329 310 325 338 363 374 353 357 368 381 389 389 384 360 373 385 374 360 372 392 381 379 374 400 382 405 402 397 401 407 397
-9999 -9999 -9999 -9999 -9999 -9999 -9999 -9999 -9999 -9999 -9999 -9999 -9999 -9999 -9999 -9999 -9999 -9999 -9999 -9999 -9999 -9999 -9999 -9999 -9999 -9999 -9999 -9999 -9999 -9999 -9999 -9999 -9999 -9999 -9999 -9999 -9999 -9999 -9999 -9999 -9999 -9999 -9999 -9999 -9999 -9999 -9999 -9999 -9999 -9999 -9999 -9999 -9999 -9999 -9999 -9999 -9999 -9999 -9999 -9999 -9999 -9999 -9999 -9999 -9999 -9999 -9999 -9999 -9999 -9999 -9999 -9999 -9999 -9999 -9999 -9999 -9999 -9999 -9999 -9999 -9999 -9999 -9999 -9999 -9999 -9999 59 40 123 182 175 249 331 349 425 425 539 555 226 212 235 269 251 169 131 119 112 91 165 278 246 246 285 196 169 223 259 289 262 207 164 146 136 137 124 128 151 167 209 186 161 145 158 198 295 298 281 383 435 545 558 432 292 345 431 451 456 434 446 451 486 461 464 492 467 494 497 543 581 615 612 608 653 644 636 622 602 578 552 536 527 540 546 569 563 585 586 558 548 624 635 573 573 618 624 565 578 580 681 562 570 545 547 489 509 402 543 594 587 682 714 581 515 379 391 460 671 653 647 636 628 615 600 539 595 594 581 506 387 347 318 429 414 417 483 506 485 458 449 427 429 415 413 385 357 355 341 334 324 321 326 312 308 306 299 295 294 294 297 295 299 309 323 325 330 338 345 336 351 358 380 416 406 408 376 381 386 376 371 370 364 371 369 353 368 355 364 350 342 350 356 338 325 314 316 342 363 353 362 372 378 378 380 374 355 371 383 375 353 375 387 385 365 388 395 379 388 410 390 411 384 398
-9999 -9999 -9999 -9999 -9999 -9999 -9999 -9999 -9999 -9999 -9999 -9999 -9999 -9999 -9999 -9999 -9999 -9999 -9999 -9999 -9999 -9999 -9999 -9999 -9999 -9999 -9999 -9999 -9999 -9999 -9999 -9999 -9999 -9999 -9999 -9999 -9999 -9999 -9999 -9999 -9999 -9999 -9999 -9999 -9999 -9999 -9999 -9999 -9999 -9999 -9999 -9999 -9999 -9999 -9999 -9999 -9999 -9999 -9999 -9999 -9999 -9999 -9999 -9999 -9999 -9999 -9999 -9999 -9999 -9999 -9999 -9999 -9999 -9999 -9999 -9999 -9999 -9999 -9999 -9999 -9999 -9999 -9999 -9999 -9999 -9999 -9999 40 64 118 123 175 293 370 358 387 436 550 517 328 315 253 240 218 196 162 130 123 95 215 269 130 263 357 261 178 182 191 222 222 205 145 133 125 128 119 128 150 159 173 208 158 140 181 254 285 240 258 353 412 453 373 287 311 437 459 450 444 443 441 444 488 474 473 465 478 516 569 624 634 650 646 650 651 634 618 603 592 548 537 543 550 548 559 555 571 546 545 596 607 591 550 540 590 582 568 543 555 656 629 581 649 628 574 460 605 542 719 685 661 485 562 515 391 520 599 664 646 641 636 626 596 583 557 597 592 571 488 386 358 285 331 344 364 448 503 490 486 459 454 444 424 410 384 378 362 363 341 345 338 335 324 311 310 308 298 301 300 299 297 298 303 302 313 324 327 327 322 346 363 361 380 377 369 361 367 372 365 356 356 373 369 362 366 374 368 374 359 362 360 367 361 338 344 316 313 325 334 334 348 363 370 363 380 348 364 375 379 351 370 385 373 365 389 394 377 399 395 383 385 380 370
-9999 -9999 -9999 -9999 -9999 -9999 -9999 -9999 -9999 -9999 -9999 -9999 -9999 -9999 -9999 -9999 -9999 -9999 -9999 -9999 -9999 -9999 -9999 -9999 -9999 -9999 -9999 -9999 -9999 -9999 -9999 -9999 -9999 -9999 -9999 -9999 -9999 -9999 -9999 -9999 -9999 -9999 -9999 -9999 -9999 -9999 -9999 -9999 -9999 -9999 -9999 -9999 -9999 -9999 -9999 -9999 -9999 -9999 -9999 -9999 -9999 -9999 -9999 -9999 -9999 -9999 -9999 -9999 -9999 -9999 -9999 -9999 -9999 -9999 -9999 -9999 -9999 -9999 -9999 -9999 -9999 -9999 -9999 -9999 -9999 -9999 -9999 -9999 37 58 83 130 181 315 320 375 391 501 646 731 604 419 316 260 224 217 194 147 123 84 163 217 95 285 400 377 260 223 200 198 185 168 148 130 118 115 111 114 135 157 169 160 134 183 223 236 215 218 243 274 313 274 290 303 374 391 402 445 432 441 469 482 476 467 489 530 523 598 592 565 652 671 652 622 618 602 600 568 532 555 552 546 540 544 550 531 541 556 559 581 563 527 552 564 619 600 590 551 599 561 478 558 644 484 545 651 534 685 556 438 616 549 432 457 498 575 649 647 637 634 624 615 555 591 594 593 586 569 539 456 322 297 363 484 468 483 504 511 477 457 447 425 421 402 401 394 369 367 354 338 319 313 313 313 310 303 307 304 303 310 310 311 316 305 304 304 308 311 325 342 365 364 353 341 347 353 360 363 356 347 352 365 375 372 379 370 377 368 377 362 377 354 363 352 337 329 327 320 324 325 341 351 356 359 344 360 367 363 345 374 382 362 364 375 381 366 381 385 369 363 360 346
-9999 -9999 -9999 -9999 -9999 -9999 -9999 -9999 -9999 -9999 -9999 -9999 -9999 -9999 -9999 -9999 -9999 -9999 -9999 -9999 -9999 -9999 -9999 -9999 -9999 -9999 -9999 -9999 -9999 -9999 -9999 -9999 -9999 -9999 -9999 -9999 -9999 -9999 -9999 -9999 -9999 -9999 -9999 -9999 -9999 -9999 -9999 -9999 -9999 -9999 -9999 -9999 -9999 -9999 -9999 -9999 -9999 -9999 -9999 -9999 -9999 -9999 -9999 -9999 -9999 -9999 -9999 -9999 -9999 -9999 -9999 -9999 -9999 -9999 -9999 -9999 -9999 -9999 -9999 -9999 -9999 -9999 -9999 -9999 -9999 -9999 -9999 -9999 32 28 38 96 187 222 235 395 426 452 587 658 704 571 505 452 294 224 237 188 134 121 107 88 87 132 358 433 443 428 304 239 219 209 197 144 126 113 111 107 110 125 155 185 150 173 222 173 178 270 305 402 502 486 480 452 423 474 456 427 446 463 476 471 468 518 549 516 551 586 546 541 651 615 627 633 616 610 595 543 540 565 549 542 530 532 533 544 578 587 578 558 527 517 534 566 563 546 522 554 574 549 602 510 452 543 680 672 704 645 567 498 657 474 453 661 686 673 651 651 635 635 617 584 611 610 602 595 581 567 556 454 318 365 469 507 508 489 505 498 496 457 434 415 422 416 409 388 391 383 360 334 324 315 316 314 313 308 311 303 298 308 311 321 325 328 322 320 313 308 316 328 346 353 338 328 322 331 341 356 349 336 342 350 376 380 388 393 376 387 400 374 381 366 379 374 343 352 352 351 337 328 320 325 328 323 327 328 330 339 342 352 347 349 348 352 351 349 341 346 338 341 341 339
-9999 -9999 -9999 -9999 -9999 -9999 -9999 -9999 -9999 -9999 -9999 -9999 -9999 -9999 -9999 -9999 -9999 -9999 -9999 -9999 -9999 -9999 -9999 -9999 -9999 -9999 -9999 -9999 -9999 -9999 -9999 -9999 -9999 -9999 -9999 -9999 -9999 -9999 -9999 -9999 -9999 -9999 -9999 -9999 -9999 -9999 -9999 -9999 -9999 -9999 -9999 -9999 -9999 -9999 -9999 -9999 -9999 -9999 -9999 -9999 -9999 -9999 -9999 -9999 -9999 -9999 -9999 -9999 -9999 -9999 -9999 -9999 -9999 -9999 -9999 -9999 -9999 -9999 -9999 -9999 -9999 -9999 -9999 -9999 -9999 -9999 -9999 -9999 34 22 30 98 146 141 159 306 374 489 484 490 582 516 477 555 555 452 241 231 163 141 132 130 121 102 168 353 406 411 440 388 266 213 185 164 141 125 114 108 104 101 117 135 149 168 207 201 167 224 284 402 434 494 516 481 472 476 465 451 453 459 464 476 483 482 500 484 478 482 487 545 589 581 600 636 644 603 545 548 582 556 546 532 526 540 552 575 590 562 537 530 501 483 514 589 528 518 521 558 603 677 560 575 613 475 537 600 694 660 592 658 617 615 666 702 681 664 642 631 645 635 626 627 620 610 603 597 583 572 544 423 305 381 473 514 546 507 532 514 492 458 437 417 391 413 406 401 385 377 369 349 329 319 319 317 313 312 315 305 298 300 302 315 320 329 336 328 324 332 316 312 321 326 317 312 316 317 316 340 332 319 330 346 361 372 378 387 386 392 402 382 398 385 381 362 347 374 376 362 373 365 345 342 335 327 339 332 332 327 325 328 326 332 334 341 337 335 330 331 343 346 354 370
-9999 -9999 -9999 -9999 -9999 -9999 -9999 -9999 -9999 -9999 -9999 -9999 -9999 -9999 -9999 -9999 -9999 -9999 -9999 -9999 -9999 -9999 -9999 -9999 -9999 -9999 -9999 -9999 -9999 -9999 -9999 -9999 -9999 -9999 -9999 -9999 -9999 -9999 -9999 -9999 -9999 -9999 -9999 -9999 -9999 -9999 -9999 -9999 -9999 -9999 -9999 -9999 -9999 -9999 -9999 -9999 -9999 -9999 -9999 -9999 -9999 -9999 -9999 -9999 -9999 -9999 -9999 -9999 -9999 -9999 -9999 -9999 -9999 -9999 -9999 -9999 -9999 -9999 -9999 -9999 -9999 -9999 -9999 -9999 -9999 -9999 -9999 -9999 -9999 22 28 49 64 112 149 199 302 306 314 415 431 498 452 338 452 694 507 214 213 166 154 150 147 136 119 131 295 388 407 403 364 223 190 151 138 131 124 113 106 97 90 108 130 137 117 130 174 253 238 260 291 370 410 407 457 531 499 480 452 454 460 483 470 478 477 474 487 503 512 545 556 567 632 615 639 586 534 580 618 561 542 534 533 535 547 564 563 528 503 495 487 485 512 584 602 519 561 581 573 636 519 651 615 570 596 537 633 689 531 595 647 722 711 685 688 673 654 620 642 639 632 632 623 614 605 596 589 566 457 325 426 452 470 507 527 515 513 521 492 467 449 436 410 382 373 404 403 406 375 355 337 327 322 323 317 319 318 303 309 311 304 304 311 326 337 334 336 350 356 326 317 323 324 330 334 348 324 313 317 323 317 337 350 349 360 372 398 406 403 398 392 398 392 363 357 369 392 381 385 388 348 373 366 354 353 351 349 351 336 335 348 352 347 346 354 348 346 353 377 384 380 399
-9999 -9999 -9999 -9999 -9999 -9999 -9999 -9999 -9999 -9999 -9999 -9999 -9999 -9999 -9999 -9999 -9999 -9999 -9999 -9999 -9999 -9999 -9999 -9999 -9999 -9999 -9999 -9999 -9999 -9999 -9999 -9999 -9999 -9999 -9999 -9999 -9999 -9999 -9999 -9999 -9999 -9999 -9999 -9999 -9999 -9999 -9999 -9999 -9999 -9999 -9999 -9999 -9999 -9999 -9999 -9999 -9999 -9999 -9999 -9999 -9999 -9999 -9999 -9999 -9999 -9999 -9999 -9999 -9999 -9999 -9999 -9999 -9999 -9999 -9999 -9999 -9999 -9999 -9999 -9999 -9999 -9999 -9999 -9999 -9999 -9999 -9999 -9999 -9999 -9999 -9999 43 53 85 145 119 170 230 331 345 341 360 361 276 363 475 651 598 276 174 160 175 178 164 149 189 240 372 374 402 437 351 195 174 143 122 147 144 104 92 85 83 91 100 127 160 253 240 256 289 261 302 345 393 422 458 543 561 527 455 462 461 477 480 480 491 495 497 504 538 576 627 605 609 566 534 582 628 615 583 551 525 524 527 533 541 528 513 507 478 488 479 505 581 542 468 567 610 489 511 622 622 582 633 660 665 567 523 539 684 731 721 709 677 674 657 631 613 617 640 636 627 620 616 606 596 593 523 359 376 511 509 518 557 547 559 528 515 479 480 461 456 447 413 385 374 391 386 380 383 350 334 327 321 325 320 304 314 320 325 318 316 313 316 321 325 332 344 351 336 341 336 344 354 351 370 338 324 323 336 316 318 328 340 344 357 385 400 371 388 378 379 393 387 364 391 411 385 401 374 356 395 367 357 372 359 372 377 361 349 364 392 400 381 395 363 382 361 389 427 425 421
-9999 -9999 -9999 -9999 -9999 -9999 -9999 -9999 -9999 -9999 -9999 -9999 -9999 -9999 -9999 -9999 -9999 -9999 -9999 -9999 -9999 -9999 -9999 -9999 -9999 -9999 -9999 -9999 -9999 -9999 -9999 -9999 -9999 -9999 -9999 -9999 -9999 -9999 -9999 -9999 -9999 -9999 -9999 -9999 -9999 -9999 -9999 -9999 -9999 -9999 -9999 -9999 -9999 -9999 -9999 -9999 -9999 -9999 -9999 -9999 -9999 -9999 -9999 -9999 -9999 -9999 -9999 -9999 -9999 -9999 -9999 -9999 -9999 -9999 -9999 -9999 -9999 -9999 -9999 -9999 -9999 -9999 -9999 -9999 -9999 -9999 -9999 -9999 -9999 -9999 -9999 -9999 47 58 122 78 110 209 225 202 287 298 293 260 305 441 595 688 579 315 194 184 181 212 170 168 220 323 324 385 422 388 324 243 178 128 114 192 97 85 94 81 86 110 139 131 180 181 243 250 238 268 349 424 396 452 483 574 575 502 456 462 464 465 488 497 483 503 580 533 594 588 554 589 529 531 629 637 608 568 554 539 544 530 513 517 510 505 501 467 468 468 515 520 467 474 534 483 612 525 568 612 627 543 702 659 607 486 504 642 728 713 687 676 672 660 658 618 582 599 634 624 619 617 605 588 571 529 317 441 526 521 538 559 526 553 553 525 491 459 455 432 414 425 387 367 385 383 371 376 377 346 321 330 325 319 306 317 328 328 327 322 312 310 316 320 329 330 338 347 363 356 365 389 376 377 354 325 322 332 321 314 316 316 328 344 361 363 349 349 345 351 373 386 387 390 413 414 392 372 366 399 378 364 395 377 393 390 359 370 372 367 394 419 397 360 396 383 365 403 439 444
-9999 -9999 -9999 -9999 -9999 -9999 -9999 -9999 -9999 -9999 -9999 -9999 -9999 -9999 -9999 -9999 -9999 -9999 -9999 -9999 -9999 -9999 -9999 -9999 -9999 -9999 -9999 -9999 -9999 -9999 -9999 -9999 -9999 -9999 -9999 -9999 -9999 -9999 -9999 -9999 -9999 -9999 -9999 -9999 -9999 -9999 -9999 -9999 -9999 -9999 -9999 -9999 -9999 -9999 -9999 -9999 -9999 -9999 -9999 -9999 -9999 -9999 -9999 -9999 -9999 -9999 -9999 -9999 -9999 -9999 -9999 -9999 -9999 -9999 -9999 -9999 -9999 -9999 -9999 -9999 -9999 -9999 -9999 -9999 -9999 -9999 -9999 -9999 -9999 -9999 -9999 -9999 -9999 38 51 67 75 112 115 98 180 211 227 287 318 394 422 485 460 490 314 228 186 218 242 230 183 184 257 315 326 345 365 348 276 160 130 85 81 88 83 76 81 99 117 131 148 124 142 138 187 217 278 308 345 442 504 553 559 500 482 468 456 466 469 486 483 512 507 533 579 508 497 498 481 554 583 596 589 576 562 555 556 545 499 485 487 481 487 461 462 469 532 496 451 464 487 568 523 539 557 518 500 540 606 670 517 536 734 609 581 620 698 697 684 667 632 643 643 526 552 586 615 610 598 574 512 387 323 487 466 479 508 531 533 529 575 539 514 480 467 469 438 401 423 397 357 365 354 346 339 339 338 336 327 322 307 314 331 333 333 327 324 322 325 314 316 321 329 339 364 370 386 392 393 385 354 326 323 334 322 320 322 315 315 327 325 323 326 323 330 338 346 355 378 392 421 420 387 399 374 390 390 363 398 404 409 386 356 367 407 369 382 420 402 385 404 403 381 385 430 448
-9999 -9999 -9999 -9999 -9999 -9999 -9999 -9999 -9999 -9999 -9999 -9999 -9999 -9999 -9999 -9999 -9999 -9999 -9999 -9999 -9999 -9999 -9999 -9999 -9999 -9999 -9999 -9999 -9999 -9999 -9999 -9999 -9999 -9999 -9999 -9999 -9999 -9999 -9999 -9999 -9999 -9999 -9999 -9999 -9999 -9999 -9999 -9999 -9999 -9999 -9999 -9999 -9999 -9999 -9999 -9999 -9999 -9999 -9999 -9999 -9999 -9999 -9999 -9999 -9999 -9999 -9999 -9999 -9999 -9999 -9999 -9999 -9999 -9999 -9999 -9999 -9999 -9999 -9999 -9999 -9999 -9999 -9999 -9999 -9999 -9999 -9999 -9999 -9999 -9999 -9999 -9999 -9999 -9999 29 33 37 53 57 150 167 139 169 194 245 333 412 385 388 355 418 283 204 189 214 250 258 231 180 183 241 248 338 325 326 193 149 113 121 177 106 94 98 98 111 129 143 155 190 143 215 182 185 242 294 331 330 380 383 420 528 476 466 453 463 476 492 493 493 527 532 513 474 465 534 578 611 615 608 592 587 558 541 520 481 479 477 463 460 454 453 463 484 461 459 438 452 506 580 546 464 519 651 670 609 674 547 697 737 696 693 700 706 696 681 634 646 660 651 637 577 468 581 600 585 576 450 331 464 392 436 406 480 509 496 546 545 541 530 485 474 460 435 399 386 371 384 394 388 370 352 352 343 339 330 322 309 309 322 338 335 333 330 327 324 322 314 317 324 326 340 358 360 358 358 355 356 343 334 340 326 325 327 327 326 322 316 322 328 313 321 323 329 331 345 362 380 401 420 402 404 405 400 388 380 415 401 366 384 390 405 404 387 438 397 413 417 430 415 406 403 448
-9999 -9999 -9999 -9999 -9999 -9999 -9999 -9999 -9999 -9999 -9999 -9999 -9999 -9999 -9999 -9999 -9999 -9999 -9999 -9999 -9999 -9999 -9999 -9999 -9999 -9999 -9999 -9999 -9999 -9999 -9999 -9999 -9999 -9999 -9999 -9999 -9999 -9999 -9999 -9999 -9999 -9999 -9999 -9999 -9999 -9999 -9999 -9999 -9999 -9999 -9999 -9999 -9999 -9999 -9999 -9999 -9999 -9999 -9999 -9999 -9999 -9999 -9999 -9999 -9999 -9999 -9999 -9999 -9999 -9999 -9999 -9999 -9999 -9999 -9999 -9999 -9999 -9999 -9999 -9999 -9999 -9999 -9999 -9999 -9999 -9999 -9999 -9999 -9999 -9999 -9999 -9999 -9999 -9999 -9999 -9999 20 30 71 113 117 88 110 208 212 205 248 213 333 370 307 342 271 223 201 210 243 291 264 238 180 135 219 261 266 224 152 128 94 95 135 127 123 113 118 121 128 155 214 188 178 226 231 263 270 290 356 342 401 428 491 478 490 462 457 470 477 474 485 502 534 539 468 480 559 588 601 618 611 607 584 520 473 470 475 462 454 451 454 456 459 464 461 472 498 510 458 522 485 507 442 613 653 702 701 706 539 728 740 725 699 717 704 693 675 637 662 660 651 643 632 499 451 571 533 555 364 397 496 509 527 483 429 479 517 505 531 568 502 481 482 434 422 412 389 404 410 407 399 372 389 369 354 345 336 325 312 306 319 326 335 336 332 332 327 328 326 321 330 327 339 342 341 338 344 342 342 349 358 352 337 338 347 335 335 338 334 340 345 333 329 320 317 322 326 332 339 357 378 393 418 418 427 420 401 390 416 371 380 420 399 423 408 419 421 429 443 444 442 419 420 443
-9999 -9999 -9999 -9999 -9999 -9999 -9999 -9999 -9999 -9999 -9999 -9999 -9999 -9999 -9999 -9999 -9999 -9999 -9999 -9999 -9999 -9999 -9999 -9999 -9999 -9999 -9999 -9999 -9999 -9999 -9999 -9999 -9999 -9999 -9999 -9999 -9999 -9999 -9999 -9999 -9999 -9999 -9999 -9999 -9999 -9999 -9999 -9999 -9999 -9999 -9999 -9999 -9999 -9999 -9999 -9999 -9999 -9999 -9999 -9999 -9999 -9999 -9999 -9999 -9999 -9999 -9999 -9999 -9999 -9999 -9999 -9999 -9999 -9999 -9999 -9999 -9999 -9999 -9999 -9999 -9999 -9999 -9999 -9999 -9999 -9999 -9999 -9999 -9999 -9999 -9999 -9999 -9999 -9999 -9999 -9999 22 24 23 34 37 54 90 148 142 140 214 182 290 301 253 296 307 270 243 222 210 235 248 279 271 195 130 178 258 254 225 161 125 126 118 154 140 127 130 130 127 134 178 235 138 157 156 194 239 282 389 377 376 388 411 479 511 481 473 465 459 472 480 485 511 504 481 519 538 598 593 596 580 559 496 464 460 460 463 458 450 445 433 445 456 485 484 479 512 469 495 529 500 487 523 566 558 707 684 629 572 750 734 723 721 710 694 692 654 667 666 662 653 645 638 617 506 601 506 509 344 517 495 537 573 532 488 516 550 566 507 561 540 504 495 480 418 440 431 442 423 426 422 402 400 404 387 356 342 321 308 306 321 326 330 337 336 335 334 334 333 336 336 323 328 329 333 343 345 344 346 348 366 356 348 355 348 348 344 345 347 348 354 348 345 344 341 334 328 328 331 331 337 359 369 389 405 428 428 407 425 380 393 427 417 446 431 439 437 422 465 455 460 419 417 454
-9999 -9999 -9999 -9999 -9999 -9999 -9999 -9999 -9999 -9999 -9999 -9999 -9999 -9999 -9999 -9999 -9999 -9999 -9999 -9999 -9999 -9999 -9999 -9999 -9999 -9999 -9999 -9999 -9999 -9999 -9999 -9999 -9999 -9999 -9999 -9999 -9999 -9999 -9999 -9999 -9999 -9999 -9999 -9999 -9999 -9999 -9999 -9999 -9999 -9999 -9999 -9999 -9999 -9999 -9999 -9999 -9999 -9999 -9999 -9999 -9999 -9999 -9999 -9999 -9999 -9999 -9999 -9999 -9999 -9999 -9999 -9999 -9999 -9999 -9999 -9999 -9999 -9999 -9999 -9999 -9999 -9999 -9999 -9999 -9999 -9999 -9999 -9999 -9999 -9999 -9999 -9999 -9999 -9999 -9999 -9999 -9999 14 9 28 31 63 66 76 86 93 108 117 126 150 163 306 322 279 282 246 224 218 216 206 208 208 170 140 115 159 230 156 194 153 140 164 150 142 142 139 133 131 143 192 167 130 200 257 248 226 287 380 390 411 422 474 506 521 509 486 454 462 472 471 474 522 584 568 572 592 573 547 490 463 460 463 465 453 455 426 421 425 439 442 446 469 514 476 486 521 533 456 521 401 463 476 616 685 608 572 707 751 744 727 711 693 680 666 657 676 671 667 655 646 641 623 455 446 431 410 401 505 561 580 567 573 528 544 552 551 563 519 522 507 502 478 488 486 456 433 419 408 407 415 398 387 376 355 344 315 309 316 323 329 330 338 340 341 341 341 341 338 340 340 340 333 324 333 335 344 356 351 358 362 364 373 380 396 360 349 351 357 360 364 359 358 360 352 343 342 330 333 335 338 343 354 377 390 395 423 438 417 398 430 446 449 455 457 451 455 440 471 468 442 437 462
-9999 -9999 -9999 -9999 -9999 -9999 -9999 -9999 -9999 -9999 -9999 -9999 -9999 -9999 -9999 -9999 -9999 -9999 -9999 -9999 -9999 -9999 -9999 -9999 -9999 -9999 -9999 -9999 -9999 -9999 -9999 -9999 -9999 -9999 -9999 -9999 -9999 -9999 -9999 -9999 -9999 -9999 -9999 -9999 -9999 -9999 -9999 -9999 -9999 -9999 -9999 -9999 -9999 -9999 -9999 -9999 -9999 -9999 -9999 -9999 -9999 -9999 -9999 -9999 -9999 -9999 -9999 -9999 -9999 -9999 -9999 -9999 -9999 -9999 -9999 -9999 -9999 -9999 -9999 -9999 -9999 -9999 -9999 -9999 -9999 -9999 -9999 -9999 -9999 -9999 -9999 -9999 -9999 -9999 -9999 -9999 -9999 49 18 7 38 56 43 59 80 79 127 159 158 183 261 265 373 266 262 267 258 243 211 207 196 186 157 130 175 123 85 127 182 173 159 157 265 178 168 157 149 143 137 152 175 144 169 227 193 183 194 341 380 358 393 416 489 490 532 504 484 464 462 465 486 519 554 554 567 559 545 483 447 477 465 468 476 466 423 415 426 430 426 432 456 480 489 461 443 476 502 478 489 404 558 593 647 577 530 618 675 745 733 719 705 680 683 689 681 680 674 665 656 648 644 629 583 546 435 339 428 521 573 562 572 596 540 570 593 546 586 529 558 519 512 497 492 465 455 457 455 422 395 382 378 385 362 354 346 318 319 330 331 328 340 345 347 350 358 354 350 344 344 345 344 345 328 325 331 345 355 363 367 358 360 366 381 388 357 353 356 357 367 369 372 367 370 363 353 361 349 359 352 343 336 334 350 365 383 419 420 430 433 432 448 463 479 472 471 476 462 488 477 458 454 457
-9999 -9999 -9999 -9999 -9999 -9999 -9999 -9999 -9999 -9999 -9999 -9999 -9999 -9999 -9999 -9999 -9999 -9999 -9999 -9999 -9999 -9999 -9999 -9999 -9999 -9999 -9999 -9999 -9999 -9999 -9999 -9999 -9999 -9999 -9999 -9999 -9999 -9999 -9999 -9999 -9999 -9999 -9999 -9999 -9999 -9999 -9999 -9999 -9999 -9999 -9999 -9999 -9999 -9999 -9999 -9999 -9999 -9999 -9999 -9999 -9999 -9999 -9999 -9999 -9999 -9999 -9999 -9999 -9999 -9999 -9999 -9999 -9999 -9999 -9999 -9999 -9999 -9999 -9999 -9999 -9999 -9999 -9999 -9999 -9999 -9999 -9999 -9999 -9999 -9999 -9999 -9999 -9999 -9999 -9999 -9999 -9999 77 63 33 28 32 31 45 64 68 101 102 163 229 266 312 375 203 235 295 346 305 259 228 227 211 204 198 120 133 89 112 147 196 196 153 204 287 283 200 164 151 144 148 167 164 188 192 184 199 251 233 302 349 374 371 457 409 451 540 496 484 464 466 465 495 526 509 526 489 482 459 455 473 474 457 457 447 424 417 403 408 423 427 461 486 483 531 451 434 419 541 567 398 505 580 509 505 524 571 631 732 719 711 710 708 702 693 682 677 668 661 654 654 649 644 638 578 366 473 529 484 476 539 588 593 580 596 580 575 579 531 579 539 512 490 477 488 507 500 455 439 424 414 378 358 354 352 332 315 331 343 358 334 341 353 358 358 361 368 362 358 354 354 348 347 332 326 328 342 350 362 367 363 370 363 365 368 361 360 361 363 366 373 382 377 378 361 363 359 354 374 370 362 353 346 329 337 375 386 382 400 408 445 443 459 441 453 495 484 482 473 455 440 455 473
-9999 -9999 -9999 -9999 -9999 -9999 -9999 -9999 -9999 -9999 -9999 -9999 -9999 -9999 -9999 -9999 -9999 -9999 -9999 -9999 -9999 -9999 -9999 -9999 -9999 -9999 -9999 -9999 -9999 -9999 -9999 -9999 -9999 -9999 -9999 -9999 -9999 -9999 -9999 -9999 -9999 -9999 -9999 -9999 -9999 -9999 -9999 -9999 -9999 -9999 -9999 -9999 -9999 -9999 -9999 -9999 -9999 -9999 -9999 -9999 -9999 -9999 -9999 -9999 -9999 -9999 -9999 -9999 -9999 -9999 -9999 -9999 -9999 -9999 -9999 -9999 -9999 -9999 -9999 -9999 -9999 -9999 -9999 -9999 -9999 -9999 -9999 -9999 -9999 -9999 -9999 -9999 -9999 -9999 -9999 -9999 -9999 -9999 60 72 67 42 23 23 38 37 59 68 65 74 114 125 164 176 220 262 316 358 346 270 200 234 223 230 172 83 140 173 166 203 231 170 192 225 332 305 190 167 146 137 162 150 144 157 187 219 213 261 285 320 362 328 346 400 389 476 507 478 462 461 447 466 456 484 470 469 461 455 458 456 455 442 446 447 415 378 352 384 437 387 438 448 503 475 438 438 407 494 518 410 483 475 493 638 657 729 729 705 702 694 711 711 701 692 682 673 666 661 653 657 653 649 645 530 352 563 593 597 557 470 549 562 558 567 575 604 567 558 571 568 513 515 510 493 468 435 454 470 447 416 427 414 413 396 345 327 343 354 367 361 340 356 370 369 371 382 382 372 369 367 359 350 331 335 329 336 343 355 365 376 367 382 369 375 369 368 371 369 380 391 391 388 373 381 371 353 356 365 372 371 369 366 357 335 334 353 383 384 386 394 431 409 408 461 455 489 466 444 430 417 445 454
-9999 -9999 -9999 -9999 -9999 -9999 -9999 -9999 -9999 -9999 -9999 -9999 -9999 -9999 -9999 -9999 -9999 -9999 -9999 -9999 -9999 -9999 -9999 -9999 -9999 -9999 -9999 -9999 -9999 -9999 -9999 -9999 -9999 -9999 -9999 -9999 -9999 -9999 -9999 -9999 -9999 -9999 -9999 -9999 -9999 -9999 -9999 -9999 -9999 -9999 -9999 -9999 -9999 -9999 -9999 -9999 -9999 -9999 -9999 -9999 -9999 -9999 -9999 -9999 -9999 -9999 -9999 -9999 -9999 -9999 -9999 -9999 -9999 -9999 -9999 -9999 -9999 -9999 -9999 -9999 -9999 -9999 -9999 -9999 -9999 -9999 -9999 -9999 -9999 -9999 -9999 -9999 -9999 -9999 -9999 -9999 -9999 -9999 -9999 -9999 89 60 43 32 22 49 56 53 58 83 90 86 136 160 180 220 226 297 362 339 286 213 188 175 185 136 156 251 257 216 261 240 192 203 219 306 279 175 149 141 141 150 153 174 214 254 297 288 288 332 395 320 299 281 359 367 424 441 489 469 451 435 405 437 434 451 442 440 448 426 446 437 447 435 414 357 309 354 338 352 368 438 498 461 452 486 406 381 369 368 456 501 600 591 599 577 654 633 698 674 631 704 700 689 678 671 668 660 652 660 654 653 645 462 406 579 583 602 614 538 534 557 572 613 591 600 591 546 550 578 534 549 517 481 445 411 416 431 415 410 418 411 398 368 332 328 373 378 387 371 363 343 364 371 380 390 384 380 383 375 373 352 334 336 340 331 339 346 364 363 371 378 377 379 378 382 383 384 403 422 389 382 380 384 365 381 352 369 379 388 378 371 379 374 369 334 344 371 366 380 400 390 404 418 420 443 436 418 444 406 440 447
-9999 -9999 -9999 -9999 -9999 -9999 -9999 -9999 -9999 -9999 -9999 -9999 -9999 -9999 -9999 -9999 -9999 -9999 -9999 -9999 -9999 -9999 -9999 -9999 -9999 -9999 -9999 -9999 -9999 -9999 -9999 -9999 -9999 -9999 -9999 -9999 -9999 -9999 -9999 -9999 -9999 -9999 -9999 -9999 -9999 -9999 -9999 -9999 -9999 -9999 -9999 -9999 -9999 -9999 -9999 -9999 -9999 -9999 -9999 -9999 -9999 -9999 -9999 -9999 -9999 -9999 -9999 -9999 -9999 -9999 -9999 -9999 -9999 -9999 -9999 -9999 -9999 -9999 -9999 -9999 -9999 -9999 -9999 -9999 -9999 -9999 -9999 -9999 -9999 -9999 -9999 -9999 -9999 -9999 -9999 -9999 -9999 -9999 -9999 -9999 -9999 61 52 26 18 21 33 51 64 97 79 78 120 164 218 183 186 225 260 305 372 332 267 198 177 152 242 283 273 268 250 386 251 211 252 235 220 181 158 147 138 146 135 182 186 217 227 242 266 293 304 258 281 238 298 375 321 349 398 431 410 427 342 435 438 463 472 488 432 400 399 415 359 380 347 322 273 274 270 288 375 520 576 479 509 445 381 360 356 437 553 471 482 525 604 450 530 569 617 655 612 711 702 691 679 674 675 664 525 653 655 619 462 325 374 417 517 604 604 598 607 598 585 588 609 588 560 594 559 580 536 541 529 506 491 442 399 384 380 370 386 402 381 334 338 368 368 366 382 380 385 358 357 372 387 398 388 387 404 394 376 364 331 342 350 341 330 338 346 361 384 381 382 377 386 420 402 433 444 412 385 404 390 381 374 382 366 360 371 379 387 384 377 376 400 385 368 336 358 379 401 400 430 418 410 458 415 409 431 407 418 431
-9999 -9999 -9999 -9999 -9999 -9999 -9999 -9999 -9999 -9999 -9999 -9999 -9999 -9999 -9999 -9999 -9999 -9999 -9999 -9999 -9999 -9999 -9999 -9999 -9999 -9999 -9999 -9999 -9999 -9999 -9999 -9999 -9999 -9999 -9999 -9999 -9999 -9999 -9999 -9999 -9999 -9999 -9999 -9999 -9999 -9999 -9999 -9999 -9999 -9999 -9999 -9999 -9999 -9999 -9999 -9999 -9999 -9999 -9999 -9999 -9999 -9999 -9999 -9999 -9999 -9999 -9999 -9999 -9999 -9999 -9999 -9999 -9999 -9999 -9999 -9999 -9999 -9999 -9999 -9999 -9999 -9999 -9999 -9999 -9999 -9999 -9999 -9999 -9999 -9999 -9999 -9999 -9999 -9999 -9999 -9999 -9999 -9999 -9999 -9999 -9999 -9999 24 11 24 29 32 59 82 79 60 84 100 113 146 134 140 215 225 186 257 328 331 277 180 182 230 214 232 238 384 299 337 276 229 291 296 330 195 161 151 149 153 156 211 220 289 300 314 282 277 270 217 218 315 409 264 290 318 391 384 398 443 356 456 453 458 460 412 351 369 391 348 263 264 268 247 282 280 350 460 507 526 487 442 415 399 436 365 414 488 470 530 443 527 539 395 460 516 537 610 713 699 688 674 551 641 577 391 395 393 343 383 465 540 418 498 605 597 603 612 588 610 606 612 605 579 597 581 570 573 547 502 501 511 496 429 373 358 361 355 357 348 376 341 377 405 402 396 420 418 386 356 379 393 392 406 402 404 394 392 359 332 345 358 370 346 332 346 351 372 392 375 380 388 401 446 458 429 401 393 408 392 375 384 396 388 375 356 367 372 387 387 381 390 390 394 366 354 339 364 401 427 420 441 430 416 392 416 412 427 426
-9999 -9999 -9999 -9999 -9999 -9999 -9999 -9999 -9999 -9999 -9999 -9999 -9999 -9999 -9999 -9999 -9999 -9999 -9999 -9999 -9999 -9999 -9999 -9999 -9999 -9999 -9999 -9999 -9999 -9999 -9999 -9999 -9999 -9999 -9999 -9999 -9999 -9999 -9999 -9999 -9999 -9999 -9999 -9999 -9999 -9999 -9999 -9999 -9999 -9999 -9999 -9999 -9999 -9999 -9999 -9999 -9999 -9999 -9999 -9999 -9999 -9999 -9999 -9999 -9999 -9999 -9999 -9999 -9999 -9999 -9999 -9999 -9999 -9999 -9999 -9999 -9999 -9999 -9999 -9999 -9999 -9999 -9999 -9999 -9999 -9999 -9999 -9999 -9999 -9999 -9999 -9999 -9999 -9999 -9999 -9999 -9999 -9999 -9999 -9999 -9999 -9999 -9999 50 59 63 55 42 75 103 57 65 71 73 93 55 159 213 222 172 227 291 270 302 147 298 510 491 300 239 251 458 325 313 272 249 251 284 310 237 183 158 128 133 174 202 244 265 304 278 238 223 178 184 294 290 239 275 319 403 383 411 437 253 377 405 455 443 406 330 281 284 292 240 252 240 266 293 326 429 509 474 471 459 473 469 431 448 409 341 382 469 549 505 507 445 417 350 380 458 622 600 632 463 570 323 341 377 439 548 531 571 625 636 471 560 465 468 475 555 598 589 589 599 589 611 591 607 583 567 546 534 554 481 478 467 418 409 406 432 421 379 387 400 342 390 427 436 419 428 423 390 363 384 393 413 417 414 394 387 375 350 337 348 368 383 384 351 347 337 359 375 386 388 394 394 407 442 421 407 404 409 397 391 392 399 387 378 364 376 385 394 397 398 399 395 397 392 413 409 361 340 367 398 444 424 409 410 451 465 476 467
-9999 -9999 -9999 -9999 -9999 -9999 -9999 -9999 -9999 -9999 -9999 -9999 -9999 -9999 -9999 -9999 -9999 -9999 -9999 -9999 -9999 -9999 -9999 -9999 -9999 -9999 -9999 -9999 -9999 -9999 -9999 -9999 -9999 -9999 -9999 -9999 -9999 -9999 -9999 -9999 -9999 -9999 -9999 -9999 -9999 -9999 -9999 -9999 -9999 -9999 -9999 -9999 -9999 -9999 -9999 -9999 -9999 -9999 -9999 -9999 -9999 -9999 -9999 -9999 -9999 -9999 -9999 -9999 -9999 -9999 -9999 -9999 -9999 -9999 -9999 -9999 -9999 -9999 -9999 -9999 -9999 -9999 -9999 -9999 -9999 -9999 -9999 -9999 -9999 -9999 -9999 -9999 -9999 -9999 -9999 -9999 -9999 -9999 -9999 -9999 -9999 -9999 -9999 -9999 60 77 66 50 58 66 26 33 47 63 56 54 95 120 119 144 205 217 234 225 210 206 427 422 350 355 358 320 440 305 305 293 271 259 277 332 249 166 152 128 131 180 204 255 267 295 217 175 212 224 225 235 244 273 297 295 362 363 367 252 291 337 386 410 352 343 315 228 220 247 284 299 290 320 396 502 470 444 441 440 453 481 451 423 360 346 391 406 454 476 487 461 512 468 334 389 468 419 495 418 344 370 526 654 669 666 611 665 662 613 519 637 590 484 597 501 506 526 577 601 596 608 606 570 576 554 563 515 536 431 401 395 412 476 424 460 465 396 430 420 349 406 411 438 440 455 432 423 382 402 410 406 424 421 398 386 370 373 342 347 368 382 391 380 389 357 340 354 383 396 390 391 392 415 447 421 438 424 404 393 411 403 389 394 391 374 382 393 401 413 403 400 399 389 411 415 400 387 356 340 358 387 370 404 430 435 451 479
-9999 -9999 -9999 -9999 -9999 -9999 -9999 -9999 -9999 -9999 -9999 -9999 -9999 -9999 -9999 -9999 -9999 -9999 -9999 -9999 -9999 -9999 -9999 -9999 -9999 -9999 -9999 -9999 -9999 -9999 -9999 -9999 -9999 -9999 -9999 -9999 -9999 -9999 -9999 -9999 -9999 -9999 -9999 -9999 -9999 -9999 -9999 -9999 -9999 -9999 -9999 -9999 -9999 -9999 -9999 -9999 -9999 -9999 -9999 -9999 -9999 -9999 -9999 -9999 -9999 -9999 -9999 -9999 -9999 -9999 -9999 -9999 -9999 -9999 -9999 -9999 -9999 -9999 -9999 -9999 -9999 -9999 -9999 -9999 -9999 -9999 -9999 -9999 -9999 -9999 -9999 -9999 -9999 -9999 -9999 -9999 -9999 -9999 -9999 -9999 -9999 -9999 -9999 -9999 -9999 38 46 56 40 28 30 38 53 47 52 46 113 50 109 143 136 151 120 161 198 324 288 478 392 409 517 472 371 382 319 321 321 296 279 265 283 222 189 177 154 135 137 159 173 166 201 237 276 250 239 221 203 231 253 214 228 254 296 220 281 304 337 361 312 300 297 251 277 276 298 319 324 364 443 466 443 425 412 442 484 482 415 403 399 350 344 372 469 509 433 398 460 425 335 382 420 360 348 412 324 484 573 650 668 648 668 668 663 622 552 647 629 527 576 597 597 594 554 569 575 594 615 604 589 600 531 501 419 420 442 422 453 486 441 461 461 412 453 426 363 407 413 423 456 475 464 410 387 417 428 438 422 412 395 380 383 388 360 345 370 385 389 406 394 388 365 356 389 385 412 381 402 406 413 460 440 417 412 407 423 405 411 404 389 360 386 382 395 406 402 400 413 397 387 424 439 439 394 381 361 350 346 344 355 409 443 462
-9999 -9999 -9999 -9999 -9999 -9999 -9999 -9999 -9999 -9999 -9999 -9999 -9999 -9999 -9999 -9999 -9999 -9999 -9999 -9999 -9999 -9999 -9999 -9999 -9999 -9999 -9999 -9999 -9999 -9999 -9999 -9999 -9999 -9999 -9999 -9999 -9999 -9999 -9999 -9999 -9999 -9999 -9999 -9999 -9999 -9999 -9999 -9999 -9999 -9999 -9999 -9999 -9999 -9999 -9999 -9999 -9999 -9999 -9999 -9999 -9999 -9999 -9999 -9999 -9999 -9999 -9999 -9999 -9999 -9999 -9999 -9999 -9999 -9999 -9999 -9999 -9999 -9999 -9999 -9999 -9999 -9999 -9999 -9999 -9999 -9999 -9999 -9999 -9999 -9999 -9999 -9999 -9999 -9999 -9999 -9999 -9999 -9999 -9999 -9999 -9999 -9999 -9999 -9999 -9999 -9999 26 48 26 39 30 44 48 26 44 48 64 29 70 93 115 87 161 136 289 435 352 456 437 394 473 603 397 390 345 323 321 332 322 310 295 253 210 190 172 142 169 165 168 147 160 183 176 172 183 166 175 177 174 168 175 183 216 200 225 312 406 442 424 369 303 245 242 303 336 340 392 427 443 422 401 413 454 449 472 466 447 425 369 377 365 346 447 416 423 347 395 445 382 309 312 278 272 273 276 393 418 514 672 681 678 673 666 579 616 653 643 570 477 612 613 617 602 578 565 550 569 611 585 424 446 419 402 503 488 430 499 505 484 459 500 457 430 410 381 357 384 412 420 440 445 437 395 426 457 447 421 407 407 412 399 408 368 350 355 376 382 401 430 399 400 356 368 412 381 388 396 401 415 466 469 440 427 421 441 429 435 398 390 372 367 388 404 411 420 441 414 429 400 396 399 425 453 433 428 419 391 380 368 360 425 436
-9999 -9999 -9999 -9999 -9999 -9999 -9999 -9999 -9999 -9999 -9999 -9999 -9999 -9999 -9999 -9999 -9999 -9999 -9999 -9999 -9999 -9999 -9999 -9999 -9999 -9999 -9999 -9999 -9999 -9999 -9999 -9999 -9999 -9999 -9999 -9999 -9999 -9999 -9999 -9999 -9999 -9999 -9999 -9999 -9999 -9999 -9999 -9999 -9999 -9999 -9999 -9999 -9999 -9999 -9999 -9999 -9999 -9999 -9999 -9999 -9999 -9999 -9999 -9999 -9999 -9999 -9999 -9999 -9999 -9999 -9999 -9999 -9999 -9999 -9999 -9999 -9999 -9999 -9999 -9999 -9999 -9999 -9999 -9999 -9999 -9999 -9999 -9999 -9999 -9999 -9999 -9999 -9999 -9999 -9999 -9999 -9999 -9999 -9999 -9999 -9999 -9999 -9999 -9999 -9999 -9999 56 45 39 49 43 44 29 26 18 22 56 17 30 44 83 135 171 254 248 339 382 532 473 369 434 608 604 387 371 321 359 345 336 338 344 317 250 184 161 143 166 171 168 167 164 162 173 177 186 190 185 191 173 167 181 180 165 172 244 361 445 465 418 249 224 211 265 272 301 336 372 391 371 422 479 474 479 445 478 454 419 395 412 375 359 327 404 353 394 334 412 363 393 305 269 269 271 275 272 319 367 465 630 682 679 677 668 547 661 657 648 615 560 504 629 625 621 603 584 572 541 498 485 566 628 505 411 533 541 438 543 535 501 495 512 504 479 418 418 375 395 429 450 469 449 429 433 444 432 450 427 439 418 402 399 393 356 367 381 372 370 387 429 422 400 396 354 381 373 384 398 426 441 464 483 450 429 432 457 445 433 412 390 371 382 370 382 394 419 449 431 439 406 414 389 426 461 432 464 461 450 445 429 363 356 375
-9999 -9999 -9999 -9999 -9999 -9999 -9999 -9999 -9999 -9999 -9999 -9999 -9999 -9999 -9999 -9999 -9999 -9999 -9999 -9999 -9999 -9999 -9999 -9999 -9999 -9999 -9999 -9999 -9999 -9999 -9999 -9999 -9999 -9999 -9999 -9999 -9999 -9999 -9999 -9999 -9999 -9999 -9999 -9999 -9999 -9999 -9999 -9999 -9999 -9999 -9999 -9999 -9999 -9999 -9999 -9999 -9999 -9999 -9999 -9999 -9999 -9999 -9999 -9999 -9999 -9999 -9999 -9999 -9999 -9999 -9999 -9999 -9999 -9999 -9999 -9999 -9999 -9999 -9999 -9999 -9999 -9999 -9999 -9999 -9999 -9999 -9999 -9999 -9999 -9999 -9999 -9999 -9999 -9999 -9999 -9999 -9999 -9999 -9999 -9999 -9999 -9999 -9999 -9999 -9999 -9999 -9999 71 49 84 62 62 43 31 18 -9999 27 19 24 72 211 177 180 239 388 239 249 420 358 359 409 325 525 525 457 346 336 365 360 400 382 357 316 207 183 157 177 193 171 164 162 169 168 182 210 265 297 251 223 194 244 241 199 200 182 245 284 276 270 209 227 263 327 324 317 316 332 369 423 468 532 478 446 445 480 440 436 466 446 411 373 370 344 332 328 315 326 363 304 269 269 270 277 273 272 286 374 446 628 682 683 677 670 651 536 651 646 637 631 539 604 626 628 611 606 601 556 457 573 613 569 486 402 569 512 466 501 556 525 533 533 490 435 429 377 384 384 428 481 475 442 477 423 457 435 448 421 418 421 404 387 359 356 390 414 416 380 392 423 439 423 393 366 371 392 388 424 409 414 452 484 448 446 448 453 435 412 388 372 383 388 393 371 389 439 484 485 438 426 423 416 410 447 482 499 451 472 490 421 436 429 370
-9999 -9999 -9999 -9999 -9999 -9999 -9999 -9999 -9999 -9999 -9999 -9999 -9999 -9999 -9999 -9999 -9999 -9999 -9999 -9999 -9999 -9999 -9999 -9999 -9999 -9999 -9999 -9999 -9999 -9999 -9999 -9999 -9999 -9999 -9999 -9999 -9999 -9999 -9999 -9999 -9999 -9999 -9999 -9999 -9999 -9999 -9999 -9999 -9999 -9999 -9999 -9999 -9999 -9999 -9999 -9999 -9999 -9999 -9999 -9999 -9999 -9999 -9999 -9999 -9999 -9999 -9999 -9999 -9999 -9999 -9999 -9999 -9999 -9999 -9999 -9999 -9999 -9999 -9999 -9999 -9999 -9999 -9999 -9999 -9999 -9999 -9999 -9999 -9999 -9999 -9999 -9999 -9999 -9999 -9999 -9999 -9999 -9999 -9999 -9999 -9999 -9999 -9999 -9999 -9999 -9999 -9999 -9999 -9999 56 58 75 52 37 25 16 16 18 34 33 86 266 304 279 319 290 278 293 221 325 307 254 409 639 618 461 375 355 411 395 406 389 364 313 222 194 179 195 209 193 174 177 194 250 372 469 408 402 325 296 254 270 232 207 189 197 207 206 216 245 243 279 343 410 357 378 401 451 475 490 485 453 444 452 489 471 525 448 410 389 412 405 376 371 360 350 315 314 293 268 267 272 272 270 271 283 308 320 457 613 687 681 677 658 619 611 653 646 630 576 580 629 647 639 626 605 610 532 520 617 622 466 421 613 571 486 480 559 536 530 525 484 487 434 376 440 395 457 441 479 463 476 435 476 457 455 433 395 392 401 360 387 366 402 441 446 396 390 397 447 406 397 392 362 389 418 395 408 438 444 438 460 456 467 457 436 428 397 412 432 423 407 371 387 412 440 477 447 463 441 406 402 420 453 505 489 513 437 410 428 505 433
-9999 -9999 -9999 -9999 -9999 -9999 -9999 -9999 -9999 -9999 -9999 -9999 -9999 -9999 -9999 -9999 -9999 -9999 -9999 -9999 -9999 -9999 -9999 -9999 -9999 -9999 -9999 -9999 -9999 -9999 -9999 -9999 -9999 -9999 -9999 -9999 -9999 -9999 -9999 -9999 -9999 -9999 -9999 -9999 -9999 -9999 -9999 -9999 -9999 -9999 -9999 -9999 -9999 -9999 -9999 -9999 -9999 -9999 -9999 -9999 -9999 -9999 -9999 -9999 -9999 -9999 -9999 -9999 -9999 -9999 -9999 -9999 -9999 -9999 -9999 -9999 -9999 -9999 -9999 -9999 -9999 -9999 -9999 -9999 -9999 -9999 -9999 -9999 -9999 -9999 -9999 -9999 -9999 -9999 -9999 -9999 -9999 -9999 -9999 -9999 -9999 -9999 -9999 -9999 -9999 -9999 -9999 -9999 -9999 -9999 40 75 45 38 33 31 17 18 31 59 63 120 274 226 211 202 266 251 200 189 218 253 336 461 504 615 512 406 391 392 386 405 393 368 327 230 214 168 202 227 208 203 217 357 523 325 327 345 323 305 433 443 394 349 224 225 221 259 300 297 301 343 423 401 423 524 550 520 513 507 465 459 444 469 495 474 482 468 446 414 471 410 394 372 366 313 287 282 279 278 268 266 268 267 280 319 375 549 361 467 691 686 678 664 628 573 656 646 621 633 576 629 663 643 644 610 643 573 453 611 591 510 408 590 590 526 501 498 475 472 502 511 467 400 371 432 387 426 493 500 487 489 448 468 475 466 429 415 387 374 384 408 367 381 419 419 375 423 431 439 428 411 403 370 385 384 402 421 429 421 413 423 447 487 477 438 424 392 425 478 472 400 377 389 430 463 506 509 507 433 398 413 434 508 528 559 482 431 428 412 489 481
-9999 -9999 -9999 -9999 -9999 -9999 -9999 -9999 -9999 -9999 -9999 -9999 -9999 -9999 -9999 -9999 -9999 -9999 -9999 -9999 -9999 -9999 -9999 -9999 -9999 -9999 -9999 -9999 -9999 -9999 -9999 -9999 -9999 -9999 -9999 -9999 -9999 -9999 -9999 -9999 -9999 -9999 -9999 -9999 -9999 -9999 -9999 -9999 -9999 -9999 -9999 -9999 -9999 -9999 -9999 -9999 -9999 -9999 -9999 -9999 -9999 -9999 -9999 -9999 -9999 -9999 -9999 -9999 -9999 -9999 -9999 -9999 -9999 -9999 -9999 -9999 -9999 -9999 -9999 -9999 -9999 -9999 -9999 -9999 -9999 -9999 -9999 -9999 -9999 -9999 -9999 -9999 -9999 -9999 -9999 -9999 -9999 -9999 -9999 -9999 -9999 -9999 -9999 -9999 -9999 -9999 -9999 -9999 -9999 -9999 -9999 48 38 38 25 14 10 9 11 33 66 76 104 114 158 193 270 212 129 169 183 199 267 341 464 471 540 636 463 409 384 385 392 397 367 338 246 198 186 208 207 196 201 217 285 321 342 435 611 437 350 445 580 555 281 252 280 474 416 423 405 323 399 495 543 545 554 514 505 466 474 440 443 448 459 457 445 475 447 496 495 436 420 389 354 297 272 313 317 293 280 271 271 282 320 357 465 597 502 468 694 692 673 682 607 613 656 650 653 654 618 614 628 654 654 612 645 606 463 587 633 522 442 520 646 570 537 483 450 473 449 460 450 419 381 404 399 464 468 524 517 514 459 473 473 439 414 392 372 401 433 397 387 426 446 452 385 402 439 447 451 430 413 383 382 411 417 404 428 399 412 435 454 458 462 456 415 405 446 506 482 414 399 389 421 434 448 515 453 410 441 409 426 466 498 546 498 471 416 404 478 502
-9999 -9999 -9999 -9999 -9999 -9999 -9999 -9999 -9999 -9999 -9999 -9999 -9999 -9999 -9999 -9999 -9999 -9999 -9999 -9999 -9999 -9999 -9999 -9999 -9999 -9999 -9999 -9999 -9999 -9999 -9999 -9999 -9999 -9999 -9999 -9999 -9999 -9999 -9999 -9999 -9999 -9999 -9999 -9999 -9999 -9999 -9999 -9999 -9999 -9999 -9999 -9999 -9999 -9999 -9999 -9999 -9999 -9999 -9999 -9999 -9999 -9999 -9999 -9999 -9999 -9999 -9999 -9999 -9999 -9999 -9999 -9999 -9999 -9999 -9999 -9999 -9999 -9999 -9999 -9999 -9999 -9999 -9999 -9999 -9999 -9999 -9999 -9999 -9999 -9999 -9999 -9999 -9999 -9999 -9999 -9999 -9999 -9999 -9999 -9999 -9999 -9999 -9999 -9999 -9999 -9999 -9999 -9999 -9999 -9999 -9999 -9999 50 24 11 9 7 7 11 17 28 44 62 46 85 151 192 154 217 189 234 237 313 306 323 336 469 651 620 466 409 381 365 382 391 371 335 273 217 190 186 208 275 300 350 380 407 453 495 522 438 472 501 429 429 401 332 463 582 509 468 548 605 585 527 509 530 491 471 488 442 451 433 433 436 436 432 452 442 512 435 418 431 407 364 306 300 376 395 333 301 292 300 329 358 411 506 676 575 459 691 695 680 671 641 630 627 654 671 671 628 615 631 623 650 626 660 619 474 573 638 615 463 454 574 638 496 469 431 412 400 389 397 392 423 435 408 428 430 459 512 480 503 483 455 421 375 378 403 466 447 408 373 411 429 446 406 394 434 472 446 405 390 379 360 401 426 429 416 385 432 447 423 429 431 460 453 422 472 500 442 417 405 383 399 405 478 529 447 466 464 429 407 446 503 476 438 452 389 409 469 512
-9999 -9999 -9999 -9999 -9999 -9999 -9999 -9999 -9999 -9999 -9999 -9999 -9999 -9999 -9999 -9999 -9999 -9999 -9999 -9999 -9999 -9999 -9999 -9999 -9999 -9999 -9999 -9999 -9999 -9999 -9999 -9999 -9999 -9999 -9999 -9999 -9999 -9999 -9999 -9999 -9999 -9999 -9999 -9999 -9999 -9999 -9999 -9999 -9999 -9999 -9999 -9999 -9999 -9999 -9999 -9999 -9999 -9999 -9999 -9999 -9999 -9999 -9999 -9999 -9999 -9999 -9999 -9999 -9999 -9999 -9999 -9999 -9999 -9999 -9999 -9999 -9999 -9999 -9999 -9999 -9999 -9999 -9999 -9999 -9999 -9999 -9999 -9999 -9999 -9999 -9999 -9999 -9999 -9999 -9999 -9999 -9999 -9999 -9999 -9999 -9999 -9999 -9999 -9999 -9999 -9999 -9999 -9999 -9999 -9999 -9999 -9999 -9999 17 11 9 11 11 15 16 29 60 51 76 103 112 100 190 276 335 232 229 276 285 266 386 426 557 554 552 547 407 379 375 368 359 342 300 251 234 205 206 316 337 349 370 361 405 412 429 567 614 720 709 656 610 560 604 609 600 594 575 578 564 513 485 505 504 478 447 466 453 457 455 430 422 414 445 414 448 460 403 385 376 332 302 365 453 415 375 311 332 335 366 478 460 581 600 417 508 667 690 683 656 656 639 644 636 676 679 610 616 658 618 655 652 676 520 515 645 641 560 489 445 629 583 475 468 474 433 466 413 384 372 428 472 393 455 451 468 523 498 516 447 420 391 369 409 447 457 462 431 382 386 410 430 414 387 420 468 419 405 420 405 384 387 413 405 407 374 414 428 409 402 431 468 436 422 451 508 468 430 412 387 418 427 432 495 471 497 521 451 412 468 522 485 433 416 395 415 463 540
-9999 -9999 -9999 -9999 -9999 -9999 -9999 -9999 -9999 -9999 -9999 -9999 -9999 -9999 -9999 -9999 -9999 -9999 -9999 -9999 -9999 -9999 -9999 -9999 -9999 -9999 -9999 -9999 -9999 -9999 -9999 -9999 -9999 -9999 -9999 -9999 -9999 -9999 -9999 -9999 -9999 -9999 -9999 -9999 -9999 -9999 -9999 -9999 -9999 -9999 -9999 -9999 -9999 -9999 -9999 -9999 -9999 -9999 -9999 -9999 -9999 -9999 -9999 -9999 -9999 -9999 -9999 -9999 -9999 -9999 -9999 -9999 -9999 -9999 -9999 -9999 -9999 -9999 -9999 -9999 -9999 -9999 -9999 -9999 -9999 -9999 -9999 -9999 -9999 -9999 -9999 -9999 -9999 -9999 -9999 -9999 -9999 -9999 -9999 -9999 -9999 -9999 -9999 -9999 -9999 -9999 -9999 -9999 -9999 -9999 -9999 -9999 -9999 -9999 15 8 12 18 26 35 28 48 58 126 124 65 57 210 216 255 279 235 218 234 263 293 411 585 569 398 436 521 459 361 378 349 364 357 261 273 300 228 273 297 362 368 361 324 335 568 714 742 667 629 655 657 621 633 617 619 601 575 551 540 522 510 471 500 457 477 498 472 513 476 470 437 428 408 437 413 412 380 364 349 323 386 391 454 349 333 313 364 378 410 410 499 581 475 462 587 678 695 686 674 656 631 669 627 659 671 601 597 666 633 660 646 613 426 531 656 649 632 507 414 585 530 525 516 511 486 463 438 387 388 430 457 408 418 476 473 480 513 499 465 395 379 388 430 489 487 483 429 386 380 421 452 435 394 404 456 444 454 434 403 377 382 385 394 378 400 426 399 391 417 415 465 459 430 496 509 444 435 429 394 428 432 467 515 515 546 512 457 418 446 493 485 445 409 403 417 436 524
-9999 -9999 -9999 -9999 -9999 -9999 -9999 -9999 -9999 -9999 -9999 -9999 -9999 -9999 -9999 -9999 -9999 -9999 -9999 -9999 -9999 -9999 -9999 -9999 -9999 -9999 -9999 -9999 -9999 -9999 -9999 -9999 -9999 -9999 -9999 -9999 -9999 -9999 -9999 -9999 -9999 -9999 -9999 -9999 -9999 -9999 -9999 -9999 -9999 -9999 -9999 -9999 -9999 -9999 -9999 -9999 -9999 -9999 -9999 -9999 -9999 -9999 -9999 -9999 -9999 -9999 -9999 -9999 -9999 -9999 -9999 -9999 -9999 -9999 -9999 -9999 -9999 -9999 -9999 -9999 -9999 -9999 -9999 -9999 -9999 -9999 -9999 -9999 -9999 -9999 -9999 -9999 -9999 -9999 -9999 -9999 -9999 -9999 -9999 -9999 -9999 -9999 -9999 -9999 -9999 -9999 -9999 -9999 -9999 -9999 -9999 -9999 -9999 -9999 -9999 24 24 18 32 51 51 45 68 77 76 35 72 127 181 193 277 290 268 233 220 236 252 406 586 453 366 401 495 424 354 367 348 391 316 301 334 288 224 270 331 293 340 342 305 441 615 585 552 574 647 654 644 634 628 629 588 569 571 565 543 547 518 475 471 513 528 487 505 507 481 472 461 426 408 444 388 382 345 308 353 421 440 393 399 356 334 332 350 369 413 470 470 506 357 437 697 691 697 651 646 670 680 641 650 657 642 601 676 647 674 674 657 454 583 631 680 602 515 479 446 516 522 516 464 450 454 398 377 379 459 464 419 470 425 465 514 513 463 459 414 408 374 420 461 484 414 396 376 410 423 455 471 401 405 457 488 465 456 396 391 398 404 390 368 356 374 397 412 442 473 484 456 459 465 529 492 461 406 399 418 455 444 496 517 546 500 440 430 422 484 428 413 399 429 413 470 520
-9999 -9999 -9999 -9999 -9999 -9999 -9999 -9999 -9999 -9999 -9999 -9999 -9999 -9999 -9999 -9999 -9999 -9999 -9999 -9999 -9999 -9999 -9999 -9999 -9999 -9999 -9999 -9999 -9999 -9999 -9999 -9999 -9999 -9999 -9999 -9999 -9999 -9999 -9999 -9999 -9999 -9999 -9999 -9999 -9999 -9999 -9999 -9999 -9999 -9999 -9999 -9999 -9999 -9999 -9999 -9999 -9999 -9999 -9999 -9999 -9999 -9999 -9999 -9999 -9999 -9999 -9999 -9999 -9999 -9999 -9999 -9999 -9999 -9999 -9999 -9999 -9999 -9999 -9999 -9999 -9999 -9999 -9999 -9999 -9999 -9999 -9999 -9999 -9999 -9999 -9999 -9999 -9999 -9999 -9999 -9999 -9999 -9999 -9999 -9999 -9999 -9999 -9999 -9999 -9999 -9999 -9999 -9999 -9999 -9999 -9999 -9999 -9999 -9999 -9999 -9999 70 65 29 52 57 67 59 54 38 80 132 194 178 205 215 257 302 329 241 205 222 253 453 497 325 359 588 571 389 357 346 341 350 351 326 318 258 240 282 262 308 333 290 343 433 492 491 567 688 658 648 652 606 586 570 556 568 581 577 589 567 510 508 531 547 516 528 520 513 531 468 440 417 407 398 351 315 373 394 408 400 391 422 378 347 324 347 388 396 427 456 374 377 603 714 702 704 658 647 688 695 632 665 672 640 619 668 657 687 649 603 493 489 646 649 675 560 509 459 530 523 492 498 460 410 403 366 396 455 443 446 498 468 453 486 498 468 415 417 374 386 399 434 477 420 386 393 391 391 423 494 420 411 464 488 436 411 396 435 444 450 407 410 379 383 394 402 410 418 455 475 539 521 533 494 438 463 400 408 406 414 438 511 577 505 489 440 438 509 474 453 408 453 419 442 491
-9999 -9999 -9999 -9999 -9999 -9999 -9999 -9999 -9999 -9999 -9999 -9999 -9999 -9999 -9999 -9999 -9999 -9999 -9999 -9999 -9999 -9999 -9999 -9999 -9999 -9999 -9999 -9999 -9999 -9999 -9999 -9999 -9999 -9999 -9999 -9999 -9999 -9999 -9999 -9999 -9999 -9999 -9999 -9999 -9999 -9999 -9999 -9999 -9999 -9999 -9999 -9999 -9999 -9999 -9999 -9999 -9999 -9999 -9999 -9999 -9999 -9999 -9999 -9999 -9999 -9999 -9999 -9999 -9999 -9999 -9999 -9999 -9999 -9999 -9999 -9999 -9999 -9999 -9999 -9999 -9999 -9999 -9999 -9999 -9999 -9999 -9999 -9999 -9999 -9999 -9999 -9999 -9999 -9999 -9999 -9999 -9999 -9999 -9999 -9999 -9999 -9999 -9999 -9999 -9999 -9999 -9999 -9999 -9999 -9999 -9999 -9999 -9999 -9999 -9999 -9999 105 120 102 67 77 79 82 38 35 92 80 98 171 184 216 264 323 345 270 205 199 220 243 459 363 301 433 608 523 402 343 347 421 362 348 343 311 280 271 274 275 272 279 282 324 484 457 509 589 651 651 654 603 573 564 547 551 555 541 568 579 541 551 562 561 525 575 560 540 564 516 490 451 405 382 321 391 414 418 423 405 421 442 389 356 331 359 387 422 467 410 367 515 714 720 708 704 635 672 696 686 646 675 682 654 591 686 670 675 676 643 609 431 608 674 682 613 440 544 577 512 468 466 435 396 376 384 396 452 453 453 503 513 453 510 506 452 422 396 383 385 391 460 483 404 395 436 424 393 438 485 445 406 446 498 443 402 417 445 471 435 408 415 413 398 399 421 434 435 436 479 549 556 473 450 448 452 410 426 465 433 481 480 498 494 436 433 487 542 447 411 407 454 427 498 498
-9999 -9999 -9999 -9999 -9999 -9999 -9999 -9999 -9999 -9999 -9999 -9999 -9999 -9999 -9999 -9999 -9999 -9999 -9999 -9999 -9999 -9999 -9999 -9999 -9999 -9999 -9999 -9999 -9999 -9999 -9999 -9999 -9999 -9999 -9999 -9999 -9999 -9999 -9999 -9999 -9999 -9999 -9999 -9999 -9999 -9999 -9999 -9999 -9999 -9999 -9999 -9999 -9999 -9999 -9999 -9999 -9999 -9999 -9999 -9999 -9999 -9999 -9999 -9999 -9999 -9999 -9999 -9999 -9999 -9999 -9999 -9999 -9999 -9999 -9999 -9999 -9999 -9999 -9999 -9999 -9999 -9999 -9999 -9999 -9999 -9999 -9999 -9999 -9999 -9999 -9999 -9999 -9999 -9999 -9999 -9999 -9999 -9999 -9999 -9999 -9999 -9999 -9999 -9999 -9999 -9999 -9999 -9999 -9999 -9999 -9999 -9999 -9999 -9999 -9999 -9999 106 126 169 118 94 88 73 49 25 63 102 130 150 152 194 197 216 252 222 194 310 234 183 254 445 411 292 537 534 511 362 370 367 414 389 378 377 326 303 310 320 332 303 300 317 370 322 403 533 556 617 643 581 558 563 542 535 507 486 515 588 554 579 556 549 541 556 572 569 542 500 510 463 404 332 413 434 446 437 447 433 441 424 377 342 344 359 416 447 464 394 371 556 701 687 692 667 654 669 686 659 668 676 685 677 593 625 687 683 692 667 639 417 492 668 681 570 440 512 544 497 477 425 424 396 417 399 427 466 480 454 494 515 476 518 466 437 418 387 411 409 382 423 463 392 399 455 429 394 427 473 461 417 471 478 440 421 437 526 438 399 414 464 418 397 381 404 427 480 480 547 547 516 471 449 435 424 411 422 450 461 455 497 499 450 486 455 519 463 447 434 398 457 439 445 486
-9999 -9999 -9999 -9999 -9999 -9999 -9999 -9999 -9999 -9999 -9999 -9999 -9999 -9999 -9999 -9999 -9999 -9999 -9999 -9999 -9999 -9999 -9999 -9999 -9999 -9999 -9999 -9999 -9999 -9999 -9999 -9999 -9999 -9999 -9999 -9999 -9999 -9999 -9999 -9999 -9999 -9999 -9999 -9999 -9999 -9999 -9999 -9999 -9999 -9999 -9999 -9999 -9999 -9999 -9999 -9999 -9999 -9999 -9999 -9999 -9999 -9999 -9999 -9999 -9999 -9999 -9999 -9999 -9999 -9999 -9999 -9999 -9999 -9999 -9999 -9999 -9999 -9999 -9999 -9999 -9999 -9999 -9999 -9999 -9999 -9999 -9999 -9999 -9999 -9999 -9999 -9999 -9999 -9999 -9999 -9999 -9999 -9999 -9999 -9999 -9999 -9999 -9999 -9999 -9999 -9999 -9999 -9999 -9999 -9999 -9999 -9999 -9999 -9999 -9999 -9999 62 111 126 118 112 77 57 34 31 62 85 124 122 126 144 157 136 173 192 206 217 295 197 193 249 476 426 277 398 417 420 372 363 368 441 418 425 391 380 356 328 355 367 323 317 315 299 384 489 466 497 614 587 570 521 474 519 470 459 469 474 558 584 532 516 496 535 582 569 538 500 477 441 330 455 455 466 478 456 450 455 439 395 369 364 369 370 404 431 431 407 362 395 536 651 712 686 659 712 690 643 690 688 692 661 623 620 699 693 688 664 648 410 484 626 661 536 445 463 605 549 477 450 395 411 443 412 492 471 477 464 513 547 507 517 470 407 390 401 457 406 401 487 455 394 404 455 408 429 436 527 480 415 457 520 477 439 504 523 449 430 418 481 417 411 387 397 416 440 438 463 492 540 482 458 440 414 468 407 446 514 482 564 547 460 530 471 536 482 440 414 427 453 472 431 493
-9999 -9999 -9999 -9999 -9999 -9999 -9999 -9999 -9999 -9999 -9999 -9999 -9999 -9999 -9999 -9999 -9999 -9999 -9999 -9999 -9999 -9999 -9999 -9999 -9999 -9999 -9999 -9999 -9999 -9999 -9999 -9999 -9999 -9999 -9999 -9999 -9999 -9999 -9999 -9999 -9999 -9999 -9999 -9999 -9999 -9999 -9999 -9999 -9999 -9999 -9999 -9999 -9999 -9999 -9999 -9999 -9999 -9999 -9999 -9999 -9999 -9999 -9999 -9999 -9999 -9999 -9999 -9999 -9999 -9999 -9999 -9999 -9999 -9999 -9999 -9999 -9999 -9999 -9999 -9999 -9999 -9999 -9999 -9999 -9999 -9999 -9999 -9999 -9999 -9999 -9999 -9999 -9999 -9999 -9999 -9999 -9999 -9999 -9999 -9999 -9999 -9999 -9999 -9999 -9999 -9999 -9999 -9999 -9999 -9999 -9999 -9999 -9999 -9999 -9999 -9999 21 67 95 106 119 54 53 27 58 58 81 86 125 113 136 107 95 132 156 207 246 229 241 177 189 215 250 319 370 315 436 437 377 363 378 421 421 414 397 425 442 383 396 346 330 311 284 312 350 400 491 535 568 563 545 467 462 453 443 434 434 528 531 443 408 459 552 583 564 544 501 440 372 329 460 478 492 513 484 475 506 456 409 393 399 385 381 433 420 453 391 397 390 449 555 721 662 669 700 702 644 687 699 703 661 598 616 698 686 668 704 646 439 485 636 644 551 444 524 537 534 459 427 403 465 431 409 467 520 509 453 517 530 542 513 421 390 382 409 466 401 432 479 475 415 401 458 412 475 484 494 457 448 434 516 532 501 545 505 453 418 447 475 487 432 395 390 401 407 426 425 476 544 473 441 432 429 484 418 432 589 588 625 583 476 567 489 498 465 431 415 448 462 495 466 460
-9999 -9999 -9999 -9999 -9999 -9999 -9999 -9999 -9999 -9999 -9999 -9999 -9999 -9999 -9999 -9999 -9999 -9999 -9999 -9999 -9999 -9999 -9999 -9999 -9999 -9999 -9999 -9999 -9999 -9999 -9999 -9999 -9999 -9999 -9999 -9999 -9999 -9999 -9999 -9999 -9999 -9999 -9999 -9999 -9999 -9999 -9999 -9999 -9999 -9999 -9999 -9999 -9999 -9999 -9999 -9999 -9999 -9999 -9999 -9999 -9999 -9999 -9999 -9999 -9999 -9999 -9999 -9999 -9999 -9999 -9999 -9999 -9999 -9999 -9999 -9999 -9999 -9999 -9999 -9999 -9999 -9999 -9999 -9999 -9999 -9999 -9999 -9999 -9999 -9999 -9999 -9999 -9999 -9999 -9999 -9999 -9999 -9999 -9999 -9999 -9999 -9999 -9999 -9999 -9999 -9999 -9999 -9999 -9999 -9999 -9999 -9999 -9999 -9999 -9999 -9999 -9999 36 73 97 78 37 32 63 74 75 107 115 106 111 123 91 56 80 127 250 250 199 263 186 166 204 201 279 510 393 315 468 458 396 380 390 417 456 414 411 448 506 442 365 360 316 306 282 285 347 465 456 510 546 546 491 430 400 409 415 389 410 422 379 344 434 561 573 533 530 483 441 330 423 466 478 490 503 528 500 561 494 439 428 423 411 393 436 464 414 369 407 377 463 671 704 685 702 717 709 645 704 706 686 699 617 601 670 712 692 709 622 416 474 651 667 524 437 550 523 477 468 406 430 486 445 398 439 532 527 458 524 563 550 471 464 393 392 461 462 394 425 497 500 466 409 419 411 433 478 531 532 472 435 484 608 581 542 461 458 423 458 471 428 407 379 415 426 432 450 440 534 519 454 464 446 442 515 445 418 510 582 627 558 492 602 531 472 435 449 417 436 493 532 506 454
-9999 -9999 -9999 -9999 -9999 -9999 -9999 -9999 -9999 -9999 -9999 -9999 -9999 -9999 -9999 -9999 -9999 -9999 -9999 -9999 -9999 -9999 -9999 -9999 -9999 -9999 -9999 -9999 -9999 -9999 -9999 -9999 -9999 -9999 -9999 -9999 -9999 -9999 -9999 -9999 -9999 -9999 -9999 -9999 -9999 -9999 -9999 -9999 -9999 -9999 -9999 -9999 -9999 -9999 -9999 -9999 -9999 -9999 -9999 -9999 -9999 -9999 -9999 -9999 -9999 -9999 -9999 -9999 -9999 -9999 -9999 -9999 -9999 -9999 -9999 -9999 -9999 -9999 -9999 -9999 -9999 -9999 -9999 -9999 -9999 -9999 -9999 -9999 -9999 -9999 -9999 -9999 -9999 -9999 -9999 -9999 -9999 -9999 -9999 -9999 -9999 -9999 -9999 -9999 -9999 -9999 -9999 -9999 -9999 -9999 -9999 -9999 -9999 -9999 -9999 -9999 -9999 19 48 88 29 26 69 56 65 104 109 155 92 104 84 90 64 150 115 222 254 193 182 162 163 181 206 257 310 571 433 504 604 531 593 511 444 456 488 422 402 412 457 409 360 326 324 283 296 329 343 433 439 436 537 518 446 372 346 388 389 359 349 319 369 448 541 576 543 462 420 375 375 454 471 483 491 515 548 535 547 512 487 467 450 439 413 430 451 398 395 400 410 497 641 690 684 698 722 719 657 703 720 668 664 617 657 694 720 681 725 691 428 443 662 671 519 438 545 511 478 462 452 396 483 474 400 435 511 510 471 509 548 523 450 418 395 397 478 475 402 424 467 523 455 409 412 431 457 518 606 554 465 448 471 539 599 541 491 455 427 487 490 449 407 382 418 446 467 547 604 605 529 463 448 444 452 485 456 437 600 641 631 591 511 626 548 495 479 468 409 440 458 506 508 463
-9999 -9999 -9999 -9999 -9999 -9999 -9999 -9999 -9999 -9999 -9999 -9999 -9999 -9999 -9999 -9999 -9999 -9999 -9999 -9999 -9999 -9999 -9999 -9999 -9999 -9999 -9999 -9999 -9999 -9999 -9999 -9999 -9999 -9999 -9999 -9999 -9999 -9999 -9999 -9999 -9999 -9999 -9999 -9999 -9999 -9999 -9999 -9999 -9999 -9999 -9999 -9999 -9999 -9999 -9999 -9999 -9999 -9999 -9999 -9999 -9999 -9999 -9999 -9999 -9999 -9999 -9999 -9999 -9999 -9999 -9999 -9999 -9999 -9999 -9999 -9999 -9999 -9999 -9999 -9999 -9999 -9999 -9999 -9999 -9999 -9999 -9999 -9999 -9999 -9999 -9999 -9999 -9999 -9999 -9999 -9999 -9999 -9999 -9999 -9999 -9999 -9999 -9999 -9999 -9999 -9999 -9999 -9999 -9999 -9999 -9999 -9999 -9999 -9999 -9999 -9999 -9999 -9999 20 22 36 70 100 84 84 80 98 116 86 77 82 49 87 108 154 223 237 137 143 138 182 273 386 373 382 460 567 493 523 564 581 653 629 552 654 603 521 420 373 318 344 328 305 298 273 281 325 372 339 335 398 351 370 357 309 354 386 346 282 233 244 310 463 560 520 418 334 388 459 495 486 476 494 507 519 545 582 535 529 494 482 450 437 450 442 420 421 400 461 491 645 722 682 694 735 720 648 704 728 697 651 624 640 701 723 698 724 692 419 443 705 701 487 479 549 496 515 486 455 398 482 451 405 441 523 535 474 512 566 537 490 446 390 406 447 456 402 410 468 510 474 467 406 420 431 463 604 569 528 494 460 532 617 551 545 453 433 459 425 416 400 393 397 415 429 445 469 571 532 499 482 445 499 497 437 536 621 640 651 584 597 587 581 513 456 439 440 422 475 491 566 456
-9999 -9999 -9999 -9999 -9999 -9999 -9999 -9999 -9999 -9999 -9999 -9999 -9999 -9999 -9999 -9999 -9999 -9999 -9999 -9999 -9999 -9999 -9999 -9999 -9999 -9999 -9999 -9999 -9999 -9999 -9999 -9999 -9999 -9999 -9999 -9999 -9999 -9999 -9999 -9999 -9999 -9999 -9999 -9999 -9999 -9999 -9999 -9999 -9999 -9999 -9999 -9999 -9999 -9999 -9999 -9999 -9999 -9999 -9999 -9999 -9999 -9999 -9999 -9999 -9999 -9999 -9999 -9999 -9999 -9999 -9999 -9999 -9999 -9999 -9999 -9999 -9999 -9999 -9999 -9999 -9999 -9999 -9999 -9999 -9999 -9999 -9999 -9999 -9999 -9999 -9999 -9999 -9999 -9999 -9999 -9999 -9999 -9999 -9999 -9999 -9999 -9999 -9999 -9999 -9999 -9999 -9999 -9999 -9999 -9999 -9999 -9999 -9999 -9999 -9999 -9999 -9999 -9999 -9999 8 18 49 72 98 73 82 73 101 95 56 70 49 99 98 128 174 221 159 132 170 181 245 331 384 350 330 432 542 493 500 588 581 630 654 698 591 583 592 488 433 379 304 277 286 272 312 324 273 246 241 217 257 286 299 294 318 290 240 284 354 418 374 319 437 352 381 494 480 517 506 508 489 485 505 519 531 551 560 541 523 501 481 471 457 438 449 439 407 521 556 729 750 673 709 735 733 662 721 722 659 702 652 611 707 728 709 732 665 444 578 712 691 493 493 559 592 548 490 463 418 454 490 423 424 509 549 490 513 578 530 424 396 406 451 466 437 410 417 468 553 518 512 434 403 442 434 560 663 632 572 473 523 627 547 489 457 450 448 432 415 414 415 407 420 451 502 501 627 586 557 477 449 498 569 448 459 555 651 650 641 587 599 618 586 476 453 466 427 460 492 517 471
-9999 -9999 -9999 -9999 -9999 -9999 -9999 -9999 -9999 -9999 -9999 -9999 -9999 -9999 -9999 -9999 -9999 -9999 -9999 -9999 -9999 -9999 -9999 -9999 -9999 -9999 -9999 -9999 -9999 -9999 -9999 -9999 -9999 -9999 -9999 -9999 -9999 -9999 -9999 -9999 -9999 -9999 -9999 -9999 -9999 -9999 -9999 -9999 -9999 -9999 -9999 -9999 -9999 -9999 -9999 -9999 -9999 -9999 -9999 -9999 -9999 -9999 -9999 -9999 -9999 -9999 -9999 -9999 -9999 -9999 -9999 -9999 -9999 -9999 -9999 -9999 -9999 -9999 -9999 -9999 -9999 -9999 -9999 -9999 -9999 -9999 -9999 -9999 -9999 -9999 -9999 -9999 -9999 -9999 -9999 -9999 -9999 -9999 -9999 -9999 -9999 -9999 -9999 -9999 -9999 -9999 -9999 -9999 -9999 -9999 -9999 -9999 -9999 -9999 -9999 -9999 -9999 -9999 -9999 -9999 -9999 32 48 66 69 77 57 78 88 71 44 77 90 80 63 103 136 167 166 160 219 216 237 273 284 300 313 477 561 445 534 557 612 621 614 536 530 602 611 625 597 454 326 248 287 331 324 300 289 293 227 187 180 219 227 239 268 335 389 402 474 571 508 439 444 501 532 547 540 516 522 518 509 493 504 505 522 544 569 544 518 511 541 489 464 510 487 414 455 637 732 758 682 727 740 740 663 697 737 663 705 652 607 694 748 714 750 695 447 558 699 649 562 583 635 731 540 511 480 436 420 484 437 415 451 561 490 501 555 467 444 396 405 471 502 456 425 409 448 608 574 503 489 416 439 460 453 645 674 623 520 525 625 581 526 468 466 436 433 405 441 459 406 420 443 476 613 587 493 518 455 460 618 660 488 453 534 565 640 656 583 628 637 526 462 482 487 418 447 487 513 469
-9999 -9999 -9999 -9999 -9999 -9999 -9999 -9999 -9999 -9999 -9999 -9999 -9999 -9999 -9999 -9999 -9999 -9999 -9999 -9999 -9999 -9999 -9999 -9999 -9999 -9999 -9999 -9999 -9999 -9999 -9999 -9999 -9999 -9999 -9999 -9999 -9999 -9999 -9999 -9999 -9999 -9999 -9999 -9999 -9999 -9999 -9999 -9999 -9999 -9999 -9999 -9999 -9999 -9999 -9999 -9999 -9999 -9999 -9999 -9999 -9999 -9999 -9999 -9999 -9999 -9999 -9999 -9999 -9999 -9999 -9999 -9999 -9999 -9999 -9999 -9999 -9999 -9999 -9999 -9999 -9999 -9999 -9999 -9999 -9999 -9999 -9999 -9999 -9999 -9999 -9999 -9999 -9999 -9999 -9999 -9999 -9999 -9999 -9999 -9999 -9999 -9999 -9999 -9999 -9999 -9999 -9999 -9999 -9999 -9999 -9999 -9999 -9999 -9999 -9999 -9999 -9999 -9999 -9999 -9999 -9999 13 21 22 46 52 78 89 84 65 43 72 104 118 56 100 142 132 160 194 232 179 174 212 245 284 359 382 495 468 411 536 561 581 633 527 522 537 599 612 626 587 479 328 287 316 304 287 274 278 219 189 212 209 257 326 419 395 408 428 456 538 616 558 534 529 549 568 538 533 532 576 575 536 551 546 547 566 582 557 541 535 494 478 516 524 465 432 601 760 748 758 687 751 755 729 652 724 757 723 704 642 607 685 736 729 757 686 473 527 732 721 623 617 604 729 607 585 478 436 442 548 471 415 466 603 523 483 561 483 423 418 402 433 515 478 435 417 448 556 614 546 517 423 457 614 510 579 692 669 589 559 635 599 491 461 498 459 421 422 439 460 404 412 416 464 475 452 488 515 471 565 635 650 588 494 660 623 654 651 609 636 606 512 468 513 471 433 482 520 470 504
-9999 -9999 -9999 -9999 -9999 -9999 -9999 -9999 -9999 -9999 -9999 -9999 -9999 -9999 -9999 -9999 -9999 -9999 -9999 -9999 -9999 -9999 -9999 -9999 -9999 -9999 -9999 -9999 -9999 -9999 -9999 -9999 -9999 -9999 -9999 -9999 -9999 -9999 -9999 -9999 -9999 -9999 -9999 -9999 -9999 -9999 -9999 -9999 -9999 -9999 -9999 -9999 -9999 -9999 -9999 -9999 -9999 -9999 -9999 -9999 -9999 -9999 -9999 -9999 -9999 -9999 -9999 -9999 -9999 -9999 -9999 -9999 -9999 -9999 -9999 -9999 -9999 -9999 -9999 -9999 -9999 -9999 -9999 -9999 -9999 -9999 -9999 -9999 -9999 -9999 -9999 -9999 -9999 -9999 -9999 -9999 -9999 -9999 -9999 -9999 -9999 -9999 -9999 -9999 -9999 -9999 -9999 -9999 -9999 -9999 -9999 -9999 -9999 -9999 -9999 -9999 -9999 -9999 -9999 -9999 -9999 9 4 8 25 56 80 104 81 67 55 50 92 50 39 96 179 216 196 195 186 171 189 218 266 248 365 453 424 422 411 475 543 568 597 557 513 532 550 548 592 599 589 445 274 382 367 263 226 213 208 239 269 239 239 234 401 479 572 437 440 545 626 603 570 566 580 580 548 554 554 581 579 525 543 565 579 588 588 569 571 532 492 506 539 500 442 509 755 769 767 743 731 750 772 711 671 722 741 706 707 667 624 705 696 750 709 552 467 551 720 733 672 718 597 749 642 507 474 442 484 557 504 415 463 565 568 497 555 485 442 405 404 444 506 474 429 432 465 549 599 575 479 415 422 490 575 516 604 660 652 629 653 607 558 478 500 453 447 435 432 474 453 408 412 416 425 439 499 560 541 662 643 664 620 516 577 664 664 661 635 659 584 500 466 480 451 433 457 509 478 516
-9999 -9999 -9999 -9999 -9999 -9999 -9999 -9999 -9999 -9999 -9999 -9999 -9999 -9999 -9999 -9999 -9999 -9999 -9999 -9999 -9999 -9999 -9999 -9999 -9999 -9999 -9999 -9999 -9999 -9999 -9999 -9999 -9999 -9999 -9999 -9999 -9999 -9999 -9999 -9999 -9999 -9999 -9999 -9999 -9999 -9999 -9999 -9999 -9999 -9999 -9999 -9999 -9999 -9999 -9999 -9999 -9999 -9999 -9999 -9999 -9999 -9999 -9999 -9999 -9999 -9999 -9999 -9999 -9999 -9999 -9999 -9999 -9999 -9999 -9999 -9999 -9999 -9999 -9999 -9999 -9999 -9999 -9999 -9999 -9999 -9999 -9999 -9999 -9999 -9999 -9999 -9999 -9999 -9999 -9999 -9999 -9999 -9999 -9999 -9999 -9999 -9999 -9999 -9999 -9999 -9999 -9999 -9999 -9999 -9999 -9999 -9999 -9999 -9999 -9999 -9999 -9999 -9999 -9999 -9999 -9999 -9999 4 13 18 29 57 87 96 75 56 30 62 71 56 118 152 224 193 162 180 213 230 208 305 318 372 364 404 414 410 359 454 576 564 579 516 512 525 540 516 544 591 564 301 338 452 249 269 252 294 334 304 279 278 235 306 529 593 529 495 566 629 636 607 590 585 578 584 575 562 578 557 512 523 557 560 584 602 605 571 559 514 498 548 515 447 600 790 764 783 763 735 769 755 747 688 710 755 682 670 622 624 725 740 757 662 494 432 669 739 750 717 772 639 756 644 501 449 480 494 602 548 425 427 489 620 508 603 586 426 421 404 426 486 463 432 412 457 479 550 620 482 433 450 523 650 594 659 729 673 696 668 648 520 522 508 454 447 429 447 499 514 462 416 413 432 462 484 565 626 650 687 697 607 657 577 637 667 684 641 677 648 509 448 442 420 542 515 496 517 556
